-7.927846 -20.414728 -681.543945 
-7.575635 -20.419712 -681.712708 
-7.221593 -20.419968 -681.722107 
-6.868012 -20.421663 -681.779724 
-6.514772 -20.424583 -681.878784 
-6.160964 -20.425989 -681.926636 
-5.807968 -20.430389 -682.075684 
-5.454985 -20.435452 -682.247070 
-5.101784 -20.440304 -682.411377 
-4.748723 -20.446482 -682.620483 
-4.395494 -20.452875 -682.836853 
-4.042521 -20.461699 -683.135315 
-3.689179 -20.470238 -683.423828 
-3.335051 -20.475691 -683.608398 
-2.981392 -20.485683 -683.946045 
-2.627540 -20.496862 -684.324097 
-2.273741 -20.512026 -684.836426 
-1.918947 -20.522173 -685.179626 
0.218743 -20.729038 -692.169250 
0.578106 -20.723858 -691.994202 
0.937422 -20.721621 -691.918274 
1.297108 -20.726522 -692.083923 
1.656057 -20.720085 -691.866394 
2.015091 -20.716814 -691.755859 
2.374125 -20.714542 -691.678772 
2.732618 -20.708763 -691.483459 
3.091473 -20.706764 -691.415588 
3.450570 -20.706623 -691.410767 
3.809748 -20.706955 -691.421631 
4.167812 -20.701702 -691.243774 
4.526120 -20.698389 -691.131897 
4.884469 -20.695747 -691.042236 
5.243255 -20.695150 -691.021729 
5.601488 -20.692631 -690.936218 
5.960138 -20.691860 -690.909790 
6.317736 -20.687700 -690.768860 
6.676589 -20.687910 -690.775574 
7.037059 -20.692823 -690.941223 
7.396271 -20.693781 -690.972839 
7.758550 -20.702797 -691.277100 
8.116638 -20.700329 -691.193359 
8.475099 -20.699015 -691.148254 
8.835027 -20.701216 -691.222168 
9.195748 -20.705040 -691.350708 
9.553836 -20.702873 -691.276672 
9.915865 -20.709084 -691.486206 
10.277482 -20.714020 -691.652161 
10.636511 -20.713606 -691.637451 
10.999162 -20.720041 -691.854187 
11.356483 -20.716330 -691.728027 
11.715165 -20.715273 -691.691589 
12.070440 -20.708418 -691.459229 
12.430721 -20.710299 -691.522034 
12.787147 -20.705833 -691.370422 
13.148191 -20.708887 -691.472839 
13.510156 -20.713202 -691.617493 
14.545044 -21.173819 -707.178345 
14.902349 -21.159754 -706.701965 
15.259791 -21.146530 -706.254456 
15.624940 -21.144382 -706.180725 
15.995402 -21.149347 -706.347351 
16.359463 -21.145803 -706.226868 
16.727341 -21.147240 -706.274231 
17.088434 -21.140238 -706.036560 
17.454370 -21.139397 -706.006958 
17.817879 -21.135695 -705.880798 
18.184525 -21.135794 -705.882996 
18.553389 -21.138414 -705.970459 
18.917408 -21.135527 -705.871704 
19.278296 -21.129313 -705.660645 
19.645187 -21.129793 -705.675720 
20.010574 -21.128666 -705.636108 
20.374960 -21.126532 -705.562866 
20.745218 -21.130455 -705.694336 
21.116671 -21.135450 -705.861572 
21.488453 -21.140589 -706.034058 
21.862320 -21.147587 -706.268982 
22.236765 -21.154894 -706.514282 
22.608648 -21.159554 -706.670654 
22.982916 -21.166277 -706.896240 
-14.003681 -20.853502 -684.344238 
-13.641766 -20.843697 -684.019348 
-13.280471 -20.834360 -683.709961 
-12.918000 -20.822586 -683.320068 
-12.561427 -20.819937 -683.232727 
-12.202144 -20.812510 -682.986877 
-11.843667 -20.806055 -682.773254 
-11.483371 -20.795881 -682.436401 
-11.127259 -20.792910 -682.338501 
-10.770961 -20.789394 -682.222046 
-10.415059 -20.786400 -682.123352 
-10.058239 -20.781300 -681.954651 
-9.702325 -20.777790 -681.838867 
-9.344688 -20.770164 -681.586365 
-8.989184 -20.766878 -681.477539 
-8.637902 -20.773464 -681.696960 
-8.284780 -20.776014 -681.781982 
-7.929424 -20.772930 -681.680298 
-7.574808 -20.771566 -681.635376 
-7.221459 -20.773739 -681.708252 
-6.867727 -20.774988 -681.750061 
-6.514492 -20.777924 -681.847961 
-6.161008 -20.780397 -681.930420 
-5.807742 -20.783911 -682.047546 
-5.453897 -20.785725 -682.108093 
-5.100762 -20.790636 -682.271545 
-4.747626 -20.796278 -682.459290 
-4.394514 -20.802950 -682.681274 
-4.041043 -20.809000 -682.882507 
-3.687530 -20.815918 -683.112610 
-3.333977 -20.824070 -683.383301 
-2.980617 -20.835506 -683.763489 
-2.626853 -20.846844 -684.140015 
-2.272764 -20.858744 -684.535583 
-1.918007 -20.867792 -684.836121 
0.578521 -21.098429 -692.496033 
0.937876 -21.091240 -692.257263 
1.297472 -21.091940 -692.280518 
1.657027 -21.091827 -692.276428 
2.015500 -21.080429 -691.897888 
2.374618 -21.078207 -691.824097 
2.733277 -21.073044 -691.652283 
3.092605 -21.073631 -691.671753 
3.451857 -21.073637 -691.671631 
3.810730 -21.071493 -691.600037 
4.168487 -21.064125 -691.355347 
4.526800 -21.060522 -691.235291 
4.883915 -21.052286 -690.961426 
5.243636 -21.055599 -691.071106 
5.602211 -21.054222 -691.024963 
5.961331 -21.054941 -691.048523 
6.319764 -21.053253 -690.992065 
6.679743 -21.056656 -691.104736 
7.038303 -21.055431 -691.063721 
7.398219 -21.058203 -691.154968 
7.759196 -21.063616 -691.334412 
8.121703 -21.072491 -691.628784 
8.481694 -21.074377 -691.690674 
8.841050 -21.074585 -691.697266 
9.199951 -21.073750 -691.668762 
9.560678 -21.077000 -691.775940 
9.924451 -21.086479 -692.090454 
10.286839 -21.092468 -692.288574 
10.646255 -21.092146 -692.277161 
11.007229 -21.094849 -692.366211 
13.228644 -21.196970 -695.752930 
13.602476 -21.216433 -696.398438 
14.537716 -21.530201 -706.816772 
14.905226 -21.530872 -706.838379 
15.264302 -21.519651 -706.464600 
15.632146 -21.521013 -706.508728 
15.990672 -21.509769 -706.134521 
16.359694 -21.512842 -706.235474 
16.723387 -21.508930 -706.104431 
17.094465 -21.514467 -706.287231 
17.455660 -21.507610 -706.058350 
17.819572 -21.504301 -705.947388 
18.180365 -21.497438 -705.718323 
18.543922 -21.494051 -705.604736 
18.911324 -21.495167 -705.640686 
19.275469 -21.492613 -705.554749 
19.637667 -21.488022 -705.400818 
20.012562 -21.497240 -705.705811 
20.376980 -21.495064 -705.632446 
20.742222 -21.493832 -705.590088 
21.110214 -21.495436 -705.642151 
21.482889 -21.501669 -705.847656 
21.856949 -21.509058 -706.091980 
22.228794 -21.514061 -706.256653 
22.597038 -21.515476 -706.302124 
22.973783 -21.524811 -706.610657 
-14.010889 -21.219915 -684.699097 
-13.647411 -21.207804 -684.304749 
-13.287472 -21.200687 -684.072998 
-12.924394 -21.188051 -683.661133 
-12.566032 -21.182627 -683.485046 
-12.206328 -21.174568 -683.222656 
-11.847735 -21.168015 -683.009338 
-11.492920 -21.167995 -683.009399 
-11.132651 -21.157631 -682.671692 
-10.775364 -21.152441 -682.502930 
-10.418938 -21.148624 -682.379028 
-10.062082 -21.143660 -682.217590 
-9.704967 -21.137745 -682.025208 
-9.351810 -21.140333 -682.110413 
-8.994299 -21.132906 -681.868225 
-8.638440 -21.128904 -681.738281 
-8.284603 -21.129726 -681.765503 
-7.929474 -21.127171 -681.682739 
-7.575710 -21.128197 -681.716553 
-7.221505 -21.128021 -681.711548 
-6.867956 -21.129827 -681.770874 
-6.514339 -21.131647 -681.830627 
-6.161210 -21.135345 -681.951782 
-5.808589 -21.141310 -682.146912 
-5.454856 -21.143785 -682.228088 
-5.102056 -21.150423 -682.445129 
-4.747586 -21.150621 -682.451965 
-4.394209 -21.156162 -682.633301 
-4.040429 -21.160511 -682.775696 
-3.687717 -21.171833 -683.145691 
-3.334442 -21.182001 -683.477722 
-2.979846 -21.185263 -683.584595 
-2.625830 -21.194017 -683.870483 
-2.272173 -21.208862 -684.355530 
-1.917552 -21.218550 -684.671875 
-1.562925 -21.232548 -685.129333 
0.938512 -21.465364 -692.731689 
1.298072 -21.461475 -692.604614 
1.657593 -21.458759 -692.515625 
2.016684 -21.452318 -692.305298 
2.376507 -21.454538 -692.377808 
2.735382 -21.448750 -692.188416 
3.093633 -21.439974 -691.901794 
3.452941 -21.439598 -691.889221 
3.811870 -21.437162 -691.809387 
4.170417 -21.433119 -691.677307 
4.530252 -21.435875 -691.766968 
4.889393 -21.435186 -691.744080 
5.247076 -21.428589 -691.528320 
5.604333 -21.421257 -691.288513 
5.966020 -21.430719 -691.597168 
6.328201 -21.440748 -691.924255 
6.686899 -21.438530 -691.851501 
7.047244 -21.441587 -691.950928 
7.406614 -21.441504 -691.947510 
7.765090 -21.438950 -691.863770 
8.127521 -21.447088 -692.129150 
8.487217 -21.447613 -692.145569 
8.845784 -21.445356 -692.071167 
9.209433 -21.455107 -692.389160 
9.572325 -21.462416 -692.627136 
9.930529 -21.459087 -692.517761 
10.290293 -21.459238 -692.522278 
10.653836 -21.466982 -692.774475 
11.012623 -21.464973 -692.708130 
11.376508 -21.472692 -692.959473 
11.744627 -21.487709 -693.449097 
12.112847 -21.501993 -693.914795 
12.485659 -21.523376 -694.611938 
12.865721 -21.555698 -695.666626 
13.234078 -21.567183 -696.040894 
13.617290 -21.601610 -697.164001 
14.539798 -21.900358 -706.917542 
14.901185 -21.891998 -706.643433 
15.267559 -21.891176 -706.615540 
15.634541 -21.891232 -706.616638 
15.993975 -21.880974 -706.280579 
16.362814 -21.883755 -706.370300 
16.722769 -21.874794 -706.076599 
17.086565 -21.871122 -705.955627 
17.455212 -21.873697 -706.038574 
17.819145 -21.870371 -705.928894 
18.177576 -21.860561 -705.607483 
18.539999 -21.855848 -705.452454 
18.908257 -21.858063 -705.523682 
19.275270 -21.858772 -705.545776 
19.643589 -21.860929 -705.614746 
20.009348 -21.860191 -705.589600 
20.376812 -21.861322 -705.625000 
20.738455 -21.856268 -705.458862 
21.108309 -21.859905 -705.576233 
21.477375 -21.862606 -705.663269 
21.847485 -21.866261 -705.781189 
22.220720 -21.872887 -705.996094 
22.594313 -21.879622 -706.214905 
22.972439 -21.890474 -706.567749 
23.352306 -21.902609 -706.962524 
-14.021087 -21.591312 -685.202332 
-13.651990 -21.570513 -684.535400 
-13.289643 -21.559582 -684.185059 
-12.933444 -21.558268 -684.143860 
-12.571040 -21.546257 -683.758911 
-12.209976 -21.535913 -683.427429 
-11.850980 -21.528709 -683.196716 
-11.492168 -21.521395 -682.962891 
-11.133595 -21.514088 -682.728943 
-10.778486 -21.513218 -682.701660 
-10.420502 -21.506332 -682.481262 
-10.064757 -21.503771 -682.399658 
-9.712118 -21.507889 -682.532288 
-9.351926 -21.494949 -682.117432 
-8.998659 -21.497561 -682.201965 
-8.642694 -21.493662 -682.077087 
-8.286088 -21.487761 -681.888245 
-7.931492 -21.486776 -681.857361 
-7.576824 -21.485508 -681.816956 
-7.222644 -21.485538 -681.818298 
-6.869127 -21.487669 -681.887390 
-6.514483 -21.486330 -681.844788 
-6.160913 -21.488541 -681.916077 
-5.808074 -21.493771 -682.084412 
-5.454276 -21.495903 -682.153259 
-5.101235 -21.501480 -682.332703 
-4.747798 -21.506092 -682.481201 
-4.393833 -21.508924 -682.572449 
-4.039615 -21.510849 -682.634644 
-3.686497 -21.519566 -682.914917 
-3.333179 -21.528931 -683.215637 
-2.979097 -21.534912 -683.408142 
-2.625120 -21.543394 -683.680481 
-2.271175 -21.554823 -684.047913 
-1.916897 -21.566877 -684.435059 
-1.562374 -21.580891 -684.885071 
0.938593 -21.826853 -692.784607 
1.298466 -21.827677 -692.811096 
1.657856 -21.821814 -692.622375 
2.017478 -21.820532 -692.581238 
2.376374 -21.812971 -692.338440 
2.735710 -21.810925 -692.272339 
3.096271 -21.817972 -692.498718 
3.453610 -21.803158 -692.022583 
3.813706 -21.806965 -692.144470 
4.173399 -21.808001 -692.177734 
4.533398 -21.810303 -692.251282 
4.891380 -21.803324 -692.026855 
5.249536 -21.798029 -691.856445 
5.611465 -21.808029 -692.177246 
5.969751 -21.803528 -692.032349 
6.329071 -21.803131 -692.019287 
6.690000 -21.807993 -692.175049 
7.050855 -21.812172 -692.308533 
7.411863 -21.816360 -692.442688 
7.773132 -21.820889 -692.587769 
8.129416 -21.811657 -692.290588 
8.491154 -21.817209 -692.468506 
8.853707 -21.824333 -692.696655 
9.214580 -21.826921 -692.779053 
9.574195 -21.826441 -692.763245 
9.934733 -21.828009 -692.812866 
10.298835 -21.837048 -693.102478 
10.658998 -21.837385 -693.112610 
11.017457 -21.834349 -693.014343 
11.381122 -21.841475 -693.242554 
11.750758 -21.859272 -693.813416 
12.120498 -21.876219 -694.356934 
12.486637 -21.885859 -694.665771 
12.865245 -21.916189 -695.638794 
13.244281 -21.945581 -696.582031 
13.630974 -21.985762 -697.871704 
14.178163 -22.276039 -707.192749 
14.540316 -22.268250 -706.941895 
14.904915 -22.264511 -706.820740 
15.267919 -22.258629 -706.630737 
15.633036 -22.256021 -706.546265 
15.995045 -22.249222 -706.326843 
16.356138 -22.241484 -706.077271 
16.725266 -22.244772 -706.181824 
17.083401 -22.233601 -705.821960 
17.447647 -22.230700 -705.727661 
17.817499 -22.234901 -705.861572 
18.188341 -22.240145 -706.028870 
18.552794 -22.237526 -705.943665 
18.910349 -22.226900 -705.601379 
19.272627 -22.222126 -705.446655 
19.639542 -22.222778 -705.466492 
20.003677 -22.220320 -705.386108 
20.368553 -22.218748 -705.334534 
20.734621 -22.218519 -705.325806 
21.103354 -22.221098 -705.407532 
21.473505 -22.225056 -705.533203 
21.844313 -22.229563 -705.676453 
22.216576 -22.235355 -705.861450 
22.596586 -22.248600 -706.285339 
22.971718 -22.256699 -706.543945 
23.346851 -22.264534 -706.794128 
-13.665776 -21.948263 -685.233887 
-13.302653 -21.936443 -684.861145 
-12.933333 -21.913485 -684.136780 
-12.573404 -21.905582 -683.887817 
-12.220012 -21.908943 -683.994690 
-11.859718 -21.899750 -683.705261 
-11.503362 -21.897497 -683.634766 
-11.146114 -21.893353 -683.504517 
-10.783401 -21.877846 -683.015320 
-10.426590 -21.873648 -682.883301 
-10.070314 -21.870340 -682.779480 
-9.714428 -21.867643 -682.695007 
-9.360664 -21.869730 -682.761597 
-9.002053 -21.860195 -682.460693 
-8.647570 -21.860304 -682.464783 
-8.291543 -21.856354 -682.340698 
-7.934530 -21.849350 -682.119751 
-7.578501 -21.844519 -681.967773 
-7.223854 -21.843401 -681.932861 
-6.870062 -21.844891 -681.980286 
-6.516280 -21.846565 -682.033875 
-6.161637 -21.845358 -681.996033 
-5.808097 -21.848190 -682.085876 
-5.453619 -21.847637 -682.068726 
-5.101182 -21.855709 -682.324097 
-4.748096 -21.862045 -682.524658 
-4.394066 -21.864653 -682.607361 
-4.040263 -21.868954 -682.743591 
-3.686300 -21.873207 -682.877991 
-3.332693 -21.880625 -683.112671 
-2.978875 -21.888260 -683.354248 
-2.624614 -21.894365 -683.547119 
-2.271178 -21.910238 -684.048950 
-1.917083 -21.924467 -684.498535 
-1.562064 -21.932203 -684.742920 
1.659720 -22.206528 -693.410034 
2.018904 -22.195972 -693.076599 
2.377924 -22.186983 -692.792236 
2.738338 -22.191744 -692.942627 
3.097930 -22.189514 -692.871826 
3.458858 -22.196312 -693.086609 
3.817522 -22.188618 -692.843140 
4.176519 -22.184084 -692.699585 
4.536090 -22.183008 -692.665588 
4.895844 -22.182981 -692.664368 
5.254504 -22.178343 -692.517517 
5.614208 -22.178379 -692.518250 
5.972929 -22.174765 -692.403748 
6.331330 -22.170490 -692.268005 
6.691719 -22.173216 -692.353760 
7.053167 -22.178999 -692.536133 
7.415023 -22.185438 -692.739258 
7.775955 -22.188690 -692.841309 
8.137130 -22.192278 -692.954285 
8.496164 -22.189985 -692.881165 
8.857396 -22.193344 -692.986938 
9.219240 -22.197954 -693.131897 
9.579375 -22.198259 -693.140869 
9.941337 -22.202625 -693.278076 
10.303154 -22.206339 -693.395081 
10.662664 -22.205034 -693.353149 
11.022658 -22.204767 -693.344055 
11.388464 -22.215857 -693.693665 
11.753677 -22.225157 -693.986450 
12.124092 -22.243439 -694.563354 
12.500975 -22.272188 -695.470947 
12.882381 -22.307158 -696.575134 
13.276868 -22.362259 -698.314880 
14.174407 -22.637262 -707.001526 
14.543107 -22.639690 -707.077515 
14.904911 -22.631557 -706.819519 
15.268196 -22.625994 -706.642700 
15.633547 -22.623672 -706.568604 
15.994152 -22.614759 -706.286011 
16.360777 -22.614553 -706.278442 
16.729120 -22.616693 -706.344971 
17.099768 -22.621780 -706.504639 
17.458038 -22.610638 -706.151550 
17.818327 -22.602501 -705.893372 
18.184097 -22.601507 -705.860901 
18.549128 -22.599665 -705.801270 
18.906122 -22.588266 -705.440186 
19.266869 -22.581717 -705.232178 
19.638023 -22.587381 -705.409729 
20.003647 -22.586584 -705.383423 
20.369925 -22.586552 -705.381042 
20.732559 -22.582542 -705.253296 
21.099344 -22.583128 -705.270386 
21.467564 -22.585192 -705.334229 
21.843672 -22.595360 -705.654053 
22.212858 -22.598131 -705.740540 
22.585728 -22.604509 -705.940552 
22.961901 -22.613939 -706.237122 
23.338455 -22.623432 -706.535583 
-12.944303 -22.287756 -684.722290 
-12.578770 -22.270355 -684.181946 
-12.220485 -22.265131 -684.020203 
-11.863248 -22.261551 -683.909912 
-11.504766 -22.255352 -683.717957 
-11.147698 -22.251585 -683.601501 
-10.790928 -22.248184 -683.496399 
-10.438456 -22.253693 -683.668335 
-10.074656 -22.234615 -683.075867 
-9.716906 -22.227961 -682.869690 
-9.361729 -22.226938 -682.838562 
-9.007918 -22.229183 -682.908997 
-8.649155 -22.218901 -682.589661 
-8.291757 -22.211416 -682.357666 
-7.936737 -22.209900 -682.310852 
-7.582354 -22.210096 -682.317688 
-7.225732 -22.203447 -682.111267 
-6.869374 -22.196953 -681.910034 
-6.515340 -22.197651 -681.932068 
-6.163301 -22.205654 -682.181213 
-5.809506 -22.207922 -682.252075 
-5.456693 -22.214485 -682.456482 
-5.102345 -22.215231 -682.479980 
-4.748377 -22.217918 -682.563904 
-4.394588 -22.221891 -682.687683 
-4.040752 -22.226368 -682.827209 
-3.686768 -22.230747 -682.963684 
-3.332365 -22.233273 -683.042236 
-2.978622 -22.241405 -683.295410 
-2.624727 -22.250357 -683.574036 
-2.271425 -22.268049 -684.124146 
-1.917248 -22.282009 -684.558105 
-1.562468 -22.293707 -684.922180 
-1.207117 -22.301758 -685.172424 
2.021224 -22.581800 -693.878723 
2.380465 -22.570948 -693.541260 
2.739858 -22.564203 -693.331604 
3.099734 -22.562475 -693.277527 
3.459659 -22.561499 -693.246826 
3.818394 -22.553669 -693.003418 
4.178836 -22.556355 -693.086548 
4.537118 -22.547932 -692.824341 
4.897458 -22.550179 -692.893860 
5.257368 -22.550320 -692.897888 
5.616840 -22.548643 -692.845398 
5.976392 -22.547470 -692.808594 
6.337736 -22.552849 -692.975464 
6.697927 -22.553728 -693.002502 
7.059824 -22.559986 -693.196411 
7.418013 -22.554352 -693.020874 
7.779705 -22.559399 -693.177429 
8.141141 -22.563301 -693.298035 
8.501245 -22.563328 -693.298584 
8.864648 -22.571762 -693.560120 
9.222053 -22.564838 -693.344177 
9.585603 -22.572935 -693.595215 
9.945899 -22.573050 -693.598450 
10.306071 -22.572874 -693.592285 
10.667589 -22.575579 -693.675720 
11.031399 -22.582781 -693.898926 
11.396463 -22.592014 -694.185303 
11.763060 -22.603638 -694.545654 
12.139320 -22.632580 -695.444763 
12.513012 -22.655199 -696.147278 
12.909104 -22.715967 -698.035828 
13.279098 -22.728735 -698.431763 
13.798063 -22.989038 -706.523804 
14.175281 -23.005802 -707.043884 
14.541718 -23.004673 -707.008118 
14.900983 -22.992527 -706.629456 
16.358110 -22.977566 -706.160522 
16.724176 -22.976698 -706.132446 
17.089102 -22.974318 -706.057434 
17.453936 -22.971931 -705.981873 
17.817738 -22.968317 -705.868408 
18.179592 -22.962362 -705.682251 
18.539251 -22.953939 -705.419373 
18.905046 -22.953306 -705.398315 
19.268265 -22.949606 -705.282166 
19.633598 -22.948540 -705.247681 
19.998610 -22.947123 -705.202515 
20.362907 -22.944963 -705.134033 
20.726978 -22.942619 -705.060120 
21.100088 -22.950188 -705.294067 
21.469376 -22.953426 -705.393372 
21.834509 -22.952179 -705.353149 
22.208544 -22.960176 -705.600403 
22.580811 -22.966106 -705.783691 
22.953497 -22.972292 -705.974243 
23.329283 -22.981314 -706.253357 
-12.960245 -22.671356 -685.574524 
-12.589538 -22.645126 -684.772888 
-12.228832 -22.635920 -684.491821 
-11.868840 -22.627491 -684.234924 
-11.509685 -22.620201 -684.012451 
-11.152673 -22.616793 -683.908813 
-10.796078 -22.614035 -683.825073 
-10.441465 -22.615362 -683.866394 
-10.081952 -22.605822 -683.575073 
-9.724572 -22.600542 -683.414185 
-9.367033 -22.594452 -683.228455 
-9.009114 -22.586935 -682.999146 
-8.653028 -22.583624 -682.898132 
-8.294436 -22.573172 -682.578918 
-7.937658 -22.566946 -682.389038 
-7.583681 -22.568487 -682.436584 
-7.229127 -22.568365 -682.433533 
-6.875423 -22.571037 -682.515564 
-6.519312 -22.565668 -682.351624 
-6.163884 -22.562181 -682.245300 
-5.810768 -22.567242 -682.400818 
-5.456465 -22.568018 -682.424866 
-5.103003 -22.572670 -682.567505 
-4.747873 -22.570089 -682.488892 
-4.394037 -22.573690 -682.599426 
-4.040549 -22.579939 -682.790710 
-3.686360 -22.583014 -682.885071 
-3.332796 -22.591059 -683.131592 
-2.979050 -22.599581 -683.392395 
-2.624592 -22.604349 -683.538696 
-2.271049 -22.619633 -684.006348 
-1.917044 -22.635111 -684.480347 
-1.562203 -22.645708 -684.804626 
-1.206863 -22.652966 -685.026672 
3.822080 -22.935715 -693.678284 
4.181688 -22.931965 -693.563232 
4.541714 -22.930984 -693.532898 
4.900983 -22.926550 -693.396851 
5.260871 -22.925474 -693.363647 
5.620519 -22.923513 -693.303284 
5.978644 -22.915951 -693.071533 
6.342522 -22.930048 -693.502563 
6.701892 -22.927210 -693.415405 
7.061887 -22.926727 -693.400269 
7.422194 -22.927235 -693.415100 
7.783920 -22.931864 -693.556458 
8.145106 -22.934546 -693.637817 
8.506524 -22.937645 -693.732361 
8.868505 -22.941963 -693.863831 
9.231294 -22.947948 -694.046326 
9.590439 -22.944746 -693.947632 
9.950527 -22.943968 -693.923462 
10.309995 -22.941847 -693.857910 
10.675315 -22.952480 -694.182617 
11.039455 -22.959942 -694.410278 
11.406383 -22.972546 -694.795288 
11.775407 -22.988482 -695.281982 
12.148565 -23.011295 -695.979370 
12.533530 -23.054504 -697.300964 
14.176941 -23.375702 -707.126526 
14.541958 -23.372196 -707.018250 
14.908423 -23.371136 -706.984802 
15.264775 -23.354645 -706.479431 
15.633612 -23.357590 -706.568542 
15.996923 -23.352339 -706.406799 
16.359808 -23.346697 -706.233154 
16.721224 -23.339272 -706.004883 
17.085461 -23.336002 -705.903809 
17.452154 -23.336157 -705.907532 
17.817751 -23.334873 -705.867188 
18.183907 -23.334368 -705.850403 
18.546654 -23.329586 -705.703064 
18.913519 -23.330067 -705.716370 
19.268890 -23.316628 -705.304138 
19.633205 -23.314310 -705.231812 
19.997524 -23.312071 -705.162231 
20.371643 -23.321142 -705.438477 
20.726051 -23.307716 -705.026672 
21.093695 -23.309385 -705.076355 
21.462130 -23.311869 -705.151001 
21.830278 -23.313955 -705.213440 
22.203783 -23.321598 -705.445923 
22.577888 -23.329617 -705.689941 
22.945791 -23.331072 -705.733093 
23.322060 -23.340845 -706.030762 
-12.602953 -23.025362 -685.510132 
-12.232762 -22.998869 -684.712585 
-11.874802 -22.994473 -684.580811 
-11.515457 -22.987055 -684.358276 
-11.158539 -22.984152 -684.271484 
-10.798803 -22.975065 -683.998413 
-10.442732 -22.973402 -683.948914 
-10.085350 -22.968660 -683.806763 
-9.727124 -22.961582 -683.594116 
-9.372147 -22.961901 -683.604370 
-9.010687 -22.945768 -683.119019 
-8.656299 -22.947042 -683.157654 
-8.299208 -22.940941 -682.974548 
-7.942821 -22.936365 -682.837280 
-7.585355 -22.928080 -682.588074 
-7.229700 -22.924713 -682.487244 
-6.875523 -22.925941 -682.524536 
-6.520797 -22.925373 -682.507812 
-6.165419 -22.922316 -682.415955 
-5.811196 -22.923437 -682.450439 
-5.456595 -22.923079 -682.439941 
-5.103218 -22.928219 -682.595154 
-4.748841 -22.929308 -682.628296 
-4.394719 -22.931841 -682.704895 
-4.040600 -22.934902 -682.797485 
-3.687198 -22.943026 -683.042175 
-3.332883 -22.946510 -683.147583 
-2.979064 -22.954735 -683.395630 
-2.625128 -22.964073 -683.677002 
-2.271446 -22.979004 -684.127136 
-1.916600 -22.985407 -684.320129 
-1.562043 -22.998960 -684.728455 
-1.206908 -23.009705 -685.052429 
2.383942 -23.325380 -694.562927 
2.743644 -23.316608 -694.298340 
3.103699 -23.312441 -694.172424 
3.462716 -23.302219 -693.864441 
3.822727 -23.299925 -693.794983 
4.183665 -23.303257 -693.895081 
4.544625 -23.306118 -693.980957 
4.902800 -23.295313 -693.655396 
5.262133 -23.291174 -693.530334 
5.624798 -23.301325 -693.835876 
5.984670 -23.299393 -693.777039 
6.342743 -23.291069 -693.525879 
6.701888 -23.287359 -693.413757 
7.062837 -23.289980 -693.492371 
7.424551 -23.294760 -693.635742 
7.785236 -23.296011 -693.673096 
8.147253 -23.300970 -693.821899 
8.508195 -23.302555 -693.869263 
8.872621 -23.313150 -694.187805 
9.232591 -23.311695 -694.143311 
9.593582 -23.312807 -694.176147 
9.953870 -23.312218 -694.157776 
10.317048 -23.318169 -694.336670 
10.678893 -23.320854 -694.416626 
11.049310 -23.341436 -695.036072 
11.416519 -23.354158 -695.418701 
11.786533 -23.371664 -695.945374 
12.165151 -23.404680 -696.939453 
12.543866 -23.435963 -697.880920 
14.174459 -23.738741 -706.999573 
14.541135 -23.737984 -706.976135 
14.906789 -23.735649 -706.904724 
15.267462 -23.725687 -706.603638 
15.637823 -23.730896 -706.759521 
15.997751 -23.720398 -706.442261 
16.358412 -23.711418 -706.170654 
16.719587 -23.703579 -705.933533 
17.086998 -23.704712 -705.966675 
17.449020 -23.698483 -705.777954 
17.814814 -23.697527 -705.748169 
18.183168 -23.699959 -705.820068 
18.545568 -23.694664 -705.659546 
18.908701 -23.690519 -705.533325 
19.274595 -23.689901 -705.513733 
19.629892 -23.676552 -705.110168 
19.993284 -23.673254 -705.009766 
20.363253 -23.677719 -705.143005 
20.727766 -23.675810 -705.084106 
21.089098 -23.670401 -704.919800 
21.456764 -23.672140 -704.971191 
21.826025 -23.675562 -705.072937 
22.197954 -23.681723 -705.257202 
22.580315 -23.698629 -705.765198 
22.949097 -23.700987 -705.834534 
23.324627 -23.710108 -706.107971 
23.695086 -23.713875 -706.220093 
-12.248109 -23.383871 -685.580627 
-11.884740 -23.369638 -685.159302 
-11.524960 -23.361814 -684.927795 
-11.163486 -23.349949 -684.576416 
-10.803983 -23.341564 -684.328308 
-10.445411 -23.334679 -684.125000 
-10.084179 -23.321171 -683.724854 
-9.729852 -23.323229 -683.786560 
-9.372478 -23.317848 -683.627319 
-9.019884 -23.324421 -683.822876 
-8.659433 -23.310356 -683.406311 
-8.304017 -23.309252 -683.374146 
-7.946845 -23.302883 -683.185486 
-7.588397 -23.291994 -682.863098 
-7.231144 -23.283894 -682.623108 
-6.877588 -23.287508 -682.730957 
-6.522446 -23.285824 -682.681274 
-6.167117 -23.283241 -682.604980 
-5.812420 -23.282835 -682.593262 
-5.456591 -23.277582 -682.438110 
-5.103706 -23.285048 -682.659912 
-4.750379 -23.291454 -682.850281 
-4.395809 -23.292320 -682.876282 
-4.041873 -23.296936 -683.013245 
-3.687524 -23.299891 -683.101257 
-3.333266 -23.304115 -683.226868 
-2.979103 -23.310007 -683.401978 
-2.624763 -23.316034 -683.580872 
-2.271097 -23.330746 -684.017639 
-1.916768 -23.342976 -684.380493 
-1.561875 -23.352205 -684.654297 
-1.206897 -23.365410 -685.046387 
2.744540 -23.684898 -694.524841 
3.105375 -23.685814 -694.551697 
3.465105 -23.678902 -694.346619 
3.825113 -23.675024 -694.231201 
4.185225 -23.672468 -694.155029 
4.543561 -23.661009 -693.814697 
4.904640 -23.664476 -693.917297 
5.264533 -23.662188 -693.849060 
5.623712 -23.657139 -693.698914 
5.984564 -23.659321 -693.763367 
6.345884 -23.662996 -693.872070 
6.706466 -23.663675 -693.891846 
7.070543 -23.676003 -694.256958 
7.429819 -23.671825 -694.132751 
7.792528 -23.678480 -694.329468 
8.152747 -23.677273 -694.293335 
8.513058 -23.676464 -694.268677 
8.875642 -23.681780 -694.426086 
9.237303 -23.684298 -694.500122 
9.598637 -23.685844 -694.545410 
9.961752 -23.691494 -694.712341 
10.322722 -23.691828 -694.721558 
10.696730 -23.721050 -695.587952 
11.060987 -23.727470 -695.777832 
11.427162 -23.737453 -696.073303 
11.801189 -23.762609 -696.819031 
12.175803 -23.787449 -697.554932 
14.172600 -24.102718 -706.904724 
14.538649 -24.101000 -706.852722 
14.905506 -24.100677 -706.842102 
15.266084 -24.090443 -706.537476 
15.632546 -24.089777 -706.516724 
15.995935 -24.084515 -706.359680 
16.362747 -24.084513 -706.358582 
16.723063 -24.075176 -706.080566 
17.087713 -24.072330 -705.995178 
17.446880 -24.062046 -705.689026 
17.808920 -24.056076 -705.510620 
18.182859 -24.066072 -705.806213 
18.546015 -24.061699 -705.675415 
18.901110 -24.047237 -705.245056 
19.265274 -24.044651 -705.167358 
19.628744 -24.041307 -705.066772 
19.992027 -24.037865 -704.963318 
20.356106 -24.035475 -704.891418 
20.724804 -24.038528 -704.980713 
21.088642 -24.035950 -704.902893 
21.452761 -24.033762 -704.836609 
21.822519 -24.037861 -704.956909 
22.191761 -24.041267 -705.056641 
22.564913 -24.048733 -705.276794 
22.941885 -24.059956 -705.608459 
23.318684 -24.070669 -705.924622 
23.692276 -24.077772 -706.134033 
-13.375305 -23.844807 -688.639404 
-13.014796 -23.839659 -688.489929 
-12.652343 -23.830595 -688.225708 
-12.267801 -23.778158 -686.694275 
-11.896750 -23.749548 -685.858765 
-11.530511 -23.729048 -685.260376 
-11.172193 -23.724058 -685.115479 
-10.809286 -23.708687 -684.666870 
-10.450241 -23.701027 -684.443665 
-10.095032 -23.701838 -684.468018 
-9.734431 -23.689590 -684.110718 
-9.377039 -23.684517 -683.963074 
-9.020057 -23.680096 -683.834534 
-8.663064 -23.675323 -683.695374 
-8.305524 -23.668543 -683.497864 
-7.947696 -23.660303 -683.257690 
-7.592458 -23.659409 -683.231873 
-7.236665 -23.656569 -683.149475 
-6.878513 -23.645340 -682.821655 
-6.524307 -23.647182 -682.876160 
-6.168509 -23.643143 -682.758423 
-5.813307 -23.641047 -682.697449 
-5.458918 -23.642191 -682.731201 
-5.105124 -23.646255 -682.850342 
-4.750945 -23.649010 -682.931152 
-4.396602 -23.651327 -682.999207 
-4.041983 -23.652380 -683.030273 
-3.687537 -23.654818 -683.101807 
-3.333139 -23.658113 -683.198486 
-2.979138 -23.665361 -683.410278 
-2.624843 -23.671810 -683.599060 
-2.270836 -23.683411 -683.938049 
-1.916630 -23.696701 -684.326782 
-1.562184 -23.712595 -684.791260 
-1.206687 -23.716990 -684.919678 
-0.851145 -23.724085 -685.127319 
3.106758 -24.057220 -694.862061 
3.468920 -24.065979 -695.117676 
3.829571 -24.063658 -695.049866 
4.187286 -24.044819 -694.499023 
4.547952 -24.044575 -694.491577 
4.908252 -24.042572 -694.432678 
5.269427 -24.044844 -694.498718 
5.628520 -24.037973 -694.297668 
5.991004 -24.045504 -694.517395 
6.351049 -24.042946 -694.442322 
6.712812 -24.046827 -694.555115 
7.075383 -24.053015 -694.735596 
7.433746 -24.045029 -694.501892 
7.795431 -24.048038 -694.589233 
8.156837 -24.049961 -694.644775 
8.518446 -24.052256 -694.711487 
8.877989 -24.048809 -694.610168 
9.240089 -24.052261 -694.710388 
9.602091 -24.055237 -694.796692 
9.965793 -24.062065 -694.995911 
10.335159 -24.081627 -695.566956 
10.705469 -24.102005 -696.161499 
11.066181 -24.100140 -696.106323 
11.436992 -24.119690 -696.677002 
11.806514 -24.135408 -697.135742 
12.181447 -24.160936 -697.880798 
12.572006 -24.215055 -699.461731 
14.178490 -24.479967 -707.200134 
14.542036 -24.473757 -707.017700 
14.905190 -24.467211 -706.825378 
15.266253 -24.457628 -706.544373 
15.634260 -24.459345 -706.593567 
15.997631 -24.453915 -706.433899 
16.361771 -24.449862 -706.314453 
16.718893 -24.435732 -705.900574 
17.085714 -24.436094 -705.910217 
17.456573 -24.442085 -706.084290 
17.821173 -24.439240 -705.999817 
18.178705 -24.427019 -705.641724 
18.542198 -24.423147 -705.527283 
18.904108 -24.417355 -705.356995 
19.271704 -24.418999 -705.403748 
19.633076 -24.412846 -705.222595 
19.993279 -24.405479 -705.006348 
20.355465 -24.400768 -704.867432 
20.719233 -24.398077 -704.787476 
21.084545 -24.397280 -704.762817 
21.447317 -24.393606 -704.654175 
21.811512 -24.391653 -704.595825 
22.180054 -24.394545 -704.679016 
22.554499 -24.403728 -704.946106 
22.933338 -24.417292 -705.341125 
23.311167 -24.429379 -705.692688 
23.689983 -24.442114 -706.063538 
24.067760 -24.453407 -706.391907 
-20.817823 -24.122122 -686.301025 
-20.454475 -24.114063 -686.070251 
-13.381892 -24.214426 -688.980835 
-13.019642 -24.206312 -688.748169 
-11.538654 -24.102039 -685.748779 
-11.177640 -24.091703 -685.452148 
-10.816566 -24.080566 -685.132141 
-10.456047 -24.069950 -684.827087 
-10.095206 -24.057821 -684.478516 
-9.738525 -24.055084 -684.400269 
-9.378096 -24.042530 -684.039490 
-9.021902 -24.040249 -683.974426 
-8.665192 -24.036377 -683.863525 
-8.308978 -24.033594 -683.783752 
-7.951271 -24.026070 -683.567749 
-7.594502 -24.020781 -683.416077 
-7.239502 -24.020889 -683.419556 
-6.882195 -24.012911 -683.190430 
-6.524498 -24.002649 -682.895264 
-6.170202 -24.004433 -682.946960 
-5.816178 -24.007549 -683.037292 
-5.461872 -24.009846 -683.103699 
-5.106393 -24.006947 -683.020569 
-4.752563 -24.011951 -683.164978 
-4.398022 -24.013876 -683.220703 
-4.042761 -24.011871 -683.163330 
-3.688430 -24.015480 -683.267212 
-3.333869 -24.018257 -683.347473 
-2.979387 -24.022346 -683.465515 
-2.625362 -24.031731 -683.735718 
-2.270795 -24.038195 -683.922119 
-1.916282 -24.047882 -684.201111 
-1.561500 -24.057833 -684.487854 
-1.206631 -24.071712 -684.887512 
-0.851349 -24.085793 -685.292908 
-0.495666 -24.100151 -685.706299 
3.470119 -24.435505 -695.360962 
3.831454 -24.436649 -695.393616 
4.191671 -24.431086 -695.233093 
4.551134 -24.422346 -694.981506 
4.910715 -24.415491 -694.783813 
5.270008 -24.408237 -694.574646 
5.630799 -24.408415 -694.579407 
5.992306 -24.411495 -694.667480 
6.352858 -24.410551 -694.639954 
6.713263 -24.409174 -694.600037 
7.076886 -24.419054 -694.883850 
7.439077 -24.423265 -695.004761 
7.799864 -24.422665 -694.986816 
8.160788 -24.422552 -694.983276 
8.522627 -24.425085 -695.055603 
8.884411 -24.427233 -695.116821 
9.246618 -24.430349 -695.206238 
9.610440 -24.437325 -695.406372 
9.978327 -24.453753 -695.878723 
10.346340 -24.469336 -696.326782 
10.708577 -24.470667 -696.364502 
11.073503 -24.477869 -696.570862 
11.444085 -24.496714 -697.112854 
11.821030 -24.527605 -698.001587 
12.203458 -24.567675 -699.154663 
13.808339 -24.841969 -707.048523 
14.176921 -24.844450 -707.119324 
14.546110 -24.847857 -707.216431 
14.902036 -24.828997 -706.672424 
16.353699 -24.804403 -705.960510 
16.717543 -24.800303 -705.841492 
17.082081 -24.797396 -705.756531 
17.447088 -24.795271 -705.694336 
17.810186 -24.790575 -705.558167 
18.173641 -24.786570 -705.441589 
18.535910 -24.781111 -705.283447 
18.903650 -24.783051 -705.338013 
19.269115 -24.781992 -705.306274 
19.631502 -24.777079 -705.163818 
19.989719 -24.767191 -704.877869 
20.353523 -24.764456 -704.797852 
20.714602 -24.758551 -704.626526 
21.090555 -24.770336 -704.964539 
21.457132 -24.770882 -704.978943 
21.824461 -24.772264 -705.017517 
22.195719 -24.777988 -705.181030 
22.569660 -24.786465 -705.423706 
22.936005 -24.786484 -705.422729 
23.306129 -24.790503 -705.537109 
23.682751 -24.801201 -705.843811 
24.061399 -24.813677 -706.201416 
-20.445854 -24.460152 -685.776184 
-20.077753 -24.445728 -685.368225 
-13.020841 -24.566339 -688.810608 
-12.662333 -24.564966 -688.772522 
-12.299275 -24.554441 -688.474548 
-11.940374 -24.551800 -688.400574 
-11.567329 -24.519030 -687.471375 
-11.182544 -24.458506 -685.755066 
-10.822845 -24.450665 -685.533203 
-10.463697 -24.443577 -685.332764 
-10.104124 -24.434961 -685.088928 
-9.743617 -24.423378 -684.760864 
-9.383415 -24.411713 -684.430542 
-9.024459 -24.402470 -684.168884 
-8.667275 -24.397491 -684.028259 
-8.311288 -24.395599 -683.975220 
-7.954941 -24.392416 -683.885193 
-7.597036 -24.383959 -683.645874 
-7.239839 -24.377031 -683.449646 
-6.882923 -24.370375 -683.261353 
-6.527190 -24.367466 -683.179138 
-6.174143 -24.374777 -683.387146 
-5.818413 -24.371752 -683.301636 
-5.463126 -24.370312 -683.261108 
-5.108293 -24.370836 -683.276306 
-4.753109 -24.369642 -683.242737 
-4.398895 -24.373634 -683.356323 
-4.044247 -24.375710 -683.415527 
-3.690432 -24.383699 -683.642517 
-3.336715 -24.394035 -683.935730 
-2.981467 -24.394382 -683.945923 
-2.625921 -24.392059 -683.880310 
-2.271349 -24.399490 -684.091125 
-1.916569 -24.407003 -684.304626 
-1.561775 -24.417582 -684.604736 
-1.206487 -24.424633 -684.804810 
-0.851300 -24.440422 -685.253113 
4.193751 -24.804453 -695.580200 
4.554354 -24.800837 -695.477234 
4.914445 -24.795170 -695.316162 
5.275721 -24.795845 -695.335022 
5.635706 -24.790762 -695.190491 
5.995143 -24.784025 -694.999023 
6.360606 -24.801559 -695.495911 
6.722576 -24.804316 -695.573792 
7.082507 -24.799654 -695.441162 
7.442595 -24.795938 -695.335144 
7.802536 -24.792130 -695.226807 
8.163857 -24.792826 -695.245911 
8.526682 -24.797871 -695.388367 
8.888690 -24.800196 -695.453735 
9.253542 -24.809988 -695.731262 
9.618795 -24.820061 -696.016418 
9.985420 -24.832817 -696.377747 
10.351598 -24.843609 -696.683289 
10.717147 -24.852217 -696.926941 
11.086798 -24.869474 -697.415649 
11.467788 -24.910265 -698.572266 
11.832817 -24.914921 -698.703796 
13.812830 -25.217319 -707.279419 
14.180266 -25.217600 -707.286438 
17.080093 -25.160967 -705.671997 
17.442474 -25.155096 -705.504150 
17.804728 -25.149260 -705.337646 
18.169498 -25.147171 -705.277100 
18.532042 -25.142118 -705.132812 
18.901566 -25.146578 -705.258057 
19.266575 -25.144962 -705.210938 
19.626493 -25.136877 -704.980591 
19.989725 -25.133249 -704.876404 
20.349518 -25.125525 -704.656006 
20.711119 -25.120266 -704.505493 
21.080408 -25.124342 -704.619873 
21.444654 -25.122372 -704.562744 
21.813513 -25.125782 -704.658264 
22.180138 -25.126551 -704.678772 
22.555912 -25.137491 -704.987610 
22.926771 -25.142685 -705.133667 
23.300203 -25.150515 -705.354187 
23.674213 -25.158697 -705.585083 
24.057310 -25.176138 -706.078308 
-24.132046 -24.944248 -689.336121 
-23.760101 -24.929707 -688.930969 
-23.394642 -24.921625 -688.706543 
-23.020271 -24.903664 -688.205444 
-20.802143 -24.816454 -685.774658 
-20.434807 -24.802992 -685.399780 
-20.066023 -24.787277 -684.961487 
-19.706047 -24.782074 -684.817261 
-12.306581 -24.926847 -688.886475 
-11.947165 -24.923559 -688.795471 
-11.584326 -24.912697 -688.492249 
-11.216998 -24.891180 -687.891174 
-10.839910 -24.845892 -686.625610 
-10.468800 -24.811682 -685.669495 
-10.107841 -24.799965 -685.342468 
-9.750220 -24.795885 -685.228943 
-9.391098 -24.787535 -684.996094 
-9.031945 -24.778444 -684.742432 
-8.677112 -24.780914 -684.812134 
-8.317115 -24.768263 -684.458618 
-7.957798 -24.756590 -684.132751 
-7.599499 -24.747107 -683.868225 
-7.244478 -24.747940 -683.891846 
-6.889107 -24.747553 -683.881592 
-6.532569 -24.742716 -683.746643 
-6.176476 -24.739098 -683.646057 
-5.822260 -24.743074 -683.757568 
-5.466918 -24.742422 -683.739624 
-5.110324 -24.735624 -683.549805 
-4.756672 -24.743111 -683.759521 
-4.401843 -24.745193 -683.817993 
-4.045415 -24.737869 -683.613525 
-3.691842 -24.748272 -683.904724 
-3.337542 -24.755499 -684.107117 
-2.982467 -24.758034 -684.178040 
-2.627200 -24.759430 -684.217407 
-2.272035 -24.762274 -684.296875 
-1.916436 -24.760683 -684.252747 
-1.561606 -24.770596 -684.529968 
-1.206333 -24.777245 -684.715881 
-0.851202 -24.793276 -685.164490 
-0.495442 -24.801432 -685.392578 
4.557341 -25.178551 -695.937073 
4.918320 -25.176138 -695.869263 
5.278694 -25.171169 -695.730042 
5.638871 -25.165964 -695.584106 
5.997480 -25.154806 -695.271790 
6.359418 -25.158100 -695.363342 
6.720840 -25.159058 -695.389771 
7.082681 -25.161448 -695.456299 
7.444311 -25.162901 -695.496338 
7.807402 -25.168898 -695.663391 
8.169080 -25.170036 -695.694946 
8.530231 -25.169502 -695.679382 
8.892779 -25.173002 -695.776672 
9.258239 -25.184116 -696.086853 
9.626453 -25.201601 -696.575500 
9.991687 -25.210306 -696.818298 
10.354079 -25.211500 -696.850830 
10.722215 -25.226114 -697.258911 
11.092238 -25.244076 -697.760498 
11.466629 -25.270498 -698.498779 
15.266264 -25.558352 -706.540222 
15.635484 -25.562130 -706.644897 
15.995624 -25.551231 -706.339233 
16.362148 -25.550812 -706.326538 
17.076206 -25.521626 -705.508179 
17.443098 -25.522375 -705.527893 
17.805494 -25.516657 -705.367065 
18.169407 -25.513294 -705.271790 
18.533899 -25.510870 -705.203064 
18.902613 -25.514235 -705.295898 
20.348648 -25.490376 -704.623962 
20.709642 -25.484301 -704.452820 
21.080553 -25.490438 -704.623291 
21.447330 -25.491447 -704.650208 
21.814512 -25.492907 -704.689453 
22.185390 -25.498543 -704.845825 
22.554537 -25.502052 -704.942688 
22.925016 -25.506933 -705.077637 
23.302433 -25.519249 -705.420776 
-24.878149 -25.332806 -690.171875 
-24.501858 -25.314451 -689.667114 
-24.119909 -25.289606 -688.983704 
-23.752991 -25.280018 -688.720886 
-23.376183 -25.259445 -688.155273 
-23.008984 -25.248783 -687.862549 
-22.636864 -25.232292 -687.409424 
-22.263554 -25.213940 -686.904663 
-21.896904 -25.202633 -686.594421 
-21.523226 -25.182749 -686.047485 
-21.159119 -25.173561 -685.795715 
-20.785301 -25.152321 -685.211304 
-20.421120 -25.142208 -684.933716 
-20.058180 -25.133291 -684.689148 
-19.690702 -25.118265 -684.276123 
-19.328329 -25.109306 -684.030273 
-18.971561 -25.107445 -683.980164 
-18.613127 -25.103252 -683.865784 
-18.256443 -25.101305 -683.813293 
-17.896818 -25.095169 -683.645081 
-11.946034 -25.278952 -688.727600 
-11.591555 -25.286114 -688.925659 
-11.231041 -25.280117 -688.761230 
-10.864032 -25.258638 -688.169739 
-10.496142 -25.233608 -687.480225 
-10.116868 -25.178455 -685.960327 
-9.756985 -25.169289 -685.708496 
-9.395963 -25.156391 -685.353516 
-9.037673 -25.150084 -685.180176 
-8.676470 -25.134830 -684.760010 
-8.318758 -25.128777 -684.593689 
-7.961539 -25.123775 -684.456360 
-7.604294 -25.118183 -684.302856 
-7.247740 -25.114492 -684.201355 
-6.892410 -25.114828 -684.211243 
-6.534976 -25.107172 -684.000488 
-6.179089 -25.104877 -683.937500 
-5.824117 -25.106239 -683.975647 
-5.468578 -25.105242 -683.948425 
-5.114106 -25.109287 -684.060303 
-4.759453 -25.112986 -684.162537 
-4.404562 -25.115921 -684.243774 
-4.048934 -25.114811 -684.213440 
-3.693203 -25.112782 -684.157776 
-3.337998 -25.114296 -684.199524 
-2.982656 -25.115007 -684.219482 
-2.627420 -25.116922 -684.272583 
-2.272583 -25.123863 -684.463928 
-1.917880 -25.135122 -684.774658 
-1.561893 -25.130875 -684.657471 
-1.206507 -25.136402 -684.809937 
-0.850948 -25.141747 -684.957520 
-0.495299 -25.150270 -685.192566 
-0.139460 -25.167936 -685.679565 
0.216874 -25.184931 -686.148132 
4.559608 -25.552702 -696.285645 
4.920053 -25.546553 -696.115784 
5.281705 -25.547085 -696.130188 
5.643047 -25.546146 -696.104004 
6.002140 -25.535763 -695.817139 
6.364314 -25.538872 -695.902527 
6.725450 -25.537748 -695.871216 
7.085623 -25.533281 -695.747498 
7.447604 -25.535400 -695.805603 
7.810570 -25.540590 -695.948120 
8.174124 -25.547113 -696.127625 
8.537633 -25.552967 -696.288391 
8.900904 -25.557690 -696.418030 
9.267294 -25.570625 -696.773987 
9.632113 -25.578417 -696.988220 
9.994761 -25.580088 -697.033630 
10.359832 -25.587629 -697.240967 
10.730751 -25.608620 -697.819031 
11.101920 -25.628792 -698.374573 
13.446956 -25.954597 -707.352173 
13.815847 -25.957558 -707.432800 
14.180858 -25.953260 -707.313416 
14.544863 -25.947369 -707.150085 
14.907606 -25.939594 -706.934814 
15.264917 -25.922970 -706.475525 
15.628249 -25.917091 -706.312622 
15.995769 -25.918272 -706.344177 
18.531500 -25.873735 -705.109009 
18.898241 -25.874514 -705.129211 
19.265038 -25.875338 -705.150696 
19.628969 -25.872356 -705.067261 
19.988781 -25.864155 -704.839966 
20.349602 -25.857519 -704.655762 
20.714249 -25.855894 -704.609802 
21.071951 -25.845825 -704.330933 
21.438009 -25.846161 -704.338928 
21.807945 -25.851068 -704.473022 
22.175785 -25.853395 -704.535645 
22.549515 -25.862383 -704.782166 
22.918741 -25.866024 -704.880981 
23.290903 -25.872791 -705.066345 
-24.871735 -25.684706 -689.990295 
-24.485743 -25.655821 -689.206604 
-24.112774 -25.639927 -688.776062 
-23.737627 -25.621202 -688.268555 
-23.367779 -25.607710 -687.903320 
-22.990553 -25.585602 -687.303467 
-22.625465 -25.576502 -687.057617 
-22.254765 -25.560677 -686.628662 
-21.878912 -25.538313 -686.022156 
-21.513081 -25.527100 -685.718506 
-21.143581 -25.511086 -685.284668 
-20.777275 -25.498440 -684.942139 
-20.416197 -25.491884 -684.765137 
-20.053701 -25.483297 -684.532898 
-19.685719 -25.467302 -684.099243 
-19.322405 -25.456848 -683.816528 
-18.961508 -25.449284 -683.611755 
-18.597759 -25.437508 -683.292847 
-18.238409 -25.431404 -683.128113 
-17.878918 -25.424862 -682.951416 
-11.940668 -25.625204 -688.413208 
-11.586976 -25.633820 -688.648376 
-11.232454 -25.641129 -688.847656 
-10.874412 -25.640593 -688.833618 
-9.040841 -25.514957 -685.421570 
-8.683269 -25.510508 -685.301208 
-8.325629 -25.505444 -685.164124 
-7.967959 -25.499874 -685.013000 
-7.609087 -25.489750 -684.738403 
-7.251309 -25.482439 -684.540222 
-6.894207 -25.476929 -684.390686 
-6.539066 -25.478403 -684.431335 
-6.182648 -25.474846 -684.335022 
-5.826358 -25.471367 -684.240723 
-5.470292 -25.468483 -684.162598 
-5.115924 -25.473694 -684.304810 
-4.760179 -25.472275 -684.266541 
-4.405158 -25.474813 -684.335876 
-4.049874 -25.476145 -684.372314 
-3.693897 -25.472963 -684.285889 
-3.338572 -25.474070 -684.316223 
-2.983547 -25.478016 -684.423767 
-2.628193 -25.479839 -684.473389 
-2.272561 -25.479113 -684.453918 
-1.917261 -25.482536 -684.546997 
-1.562119 -25.490097 -684.752808 
-1.206678 -25.495798 -684.907776 
-0.851015 -25.499638 -685.012207 
-0.495331 -25.507912 -685.237122 
-0.139446 -25.521738 -685.613281 
0.216793 -25.531866 -685.888611 
0.573690 -25.558735 -686.618713 
0.930600 -25.565355 -686.798706 
1.288228 -25.582777 -687.272278 
1.646333 -25.599880 -687.737244 
4.921986 -25.918280 -696.390808 
5.285117 -25.925383 -696.583618 
5.645879 -25.920700 -696.455994 
6.008077 -25.922728 -696.510864 
6.373723 -25.938606 -696.942200 
6.735903 -25.939444 -696.964355 
7.097772 -25.939007 -696.952209 
7.460423 -25.941383 -697.016174 
7.823032 -25.943359 -697.069580 
8.186328 -25.947346 -697.177368 
8.547832 -25.945593 -697.129089 
8.907525 -25.938675 -696.940491 
9.270462 -25.941368 -697.013367 
9.635002 -25.948185 -697.198120 
10.001283 -25.959042 -697.492310 
10.368247 -25.970842 -697.812500 
10.743187 -26.001123 -698.635071 
11.110425 -26.011421 -698.914429 
11.481341 -26.029408 -699.402771 
13.448519 -26.324970 -707.433533 
13.814116 -26.321613 -707.341370 
14.178894 -26.316912 -707.212646 
14.547264 -26.318928 -707.266541 
14.903988 -26.300316 -706.759644 
15.266451 -26.292463 -706.545288 
15.628702 -26.284643 -706.331787 
15.991790 -26.278540 -706.164978 
18.535378 -26.245401 -705.256531 
18.896723 -26.238592 -705.070190 
19.254917 -26.227741 -704.774292 
19.615555 -26.220572 -704.578247 
19.980083 -26.218775 -704.528137 
20.343668 -26.215811 -704.446411 
20.707741 -26.213573 -704.384338 
21.069614 -26.208689 -704.250061 
21.441618 -26.216347 -704.456970 
21.803507 -26.211590 -704.326477 
22.170637 -26.213203 -704.368835 
22.542051 -26.219721 -704.544739 
22.917812 -26.231020 -704.850403 
-24.475580 -26.003040 -688.915588 
-24.100147 -25.984118 -688.409485 
-23.725489 -25.965466 -687.910950 
-22.239243 -25.899286 -686.142273 
-21.869370 -25.883392 -685.717651 
-21.498816 -25.866167 -685.257019 
-21.133657 -25.854937 -684.957397 
-20.768696 -25.843597 -684.654541 
-20.404812 -25.833210 -684.377258 
-20.040733 -25.822206 -684.083435 
-18.231310 -25.776247 -682.857361 
-17.873363 -25.771652 -682.735046 
-17.518274 -25.771063 -682.720398 
-17.162222 -25.769007 -682.666443 
-11.580928 -25.977982 -688.283325 
-11.229602 -25.992329 -688.668579 
-10.874052 -25.997551 -688.809143 
-10.518101 -26.002100 -688.932007 
-10.148853 -25.972956 -688.151184 
-9.782748 -25.950050 -687.537659 
-8.328246 -25.869528 -685.381165 
-7.971147 -25.866047 -685.288452 
-7.615119 -25.865931 -685.285645 
-7.258473 -25.863596 -685.223572 
-6.900692 -25.856726 -685.039978 
-6.543053 -25.849724 -684.852539 
-6.185660 -25.842945 -684.671143 
-5.828153 -25.834778 -684.452698 
-5.472334 -25.833534 -684.419678 
-5.117620 -25.837746 -684.532898 
-4.762055 -25.837923 -684.537903 
-4.406114 -25.835915 -684.484375 
-4.050119 -25.833220 -684.412415 
-3.694299 -25.831299 -684.361145 
-3.339193 -25.834419 -684.445129 
-2.983798 -25.835793 -684.481934 
-2.628963 -25.843023 -684.676147 
-2.273322 -25.843384 -684.685791 
-1.917915 -25.847013 -684.783386 
-1.562634 -25.854391 -684.981201 
-1.206795 -25.854162 -684.975281 
-0.851149 -25.859613 -685.121460 
-0.495390 -25.867012 -685.319824 
-0.139424 -25.873844 -685.503052 
0.216755 -25.883707 -685.767456 
0.573415 -25.903025 -686.285400 
0.930443 -25.917801 -686.681519 
1.288037 -25.935772 -687.163330 
1.645330 -25.941206 -687.308777 
2.003407 -25.954857 -687.674744 
5.288824 -26.305603 -697.076416 
5.651388 -26.308067 -697.142212 
6.013961 -26.310236 -697.199707 
6.375925 -26.309685 -697.184631 
6.737871 -26.309074 -697.168030 
7.100143 -26.309795 -697.186707 
7.462873 -26.312010 -697.245789 
7.826561 -26.317251 -697.385742 
8.187778 -26.314125 -697.301331 
8.548871 -26.310841 -697.212952 
8.911500 -26.312368 -697.253357 
9.275769 -26.318434 -697.415405 
9.638354 -26.319447 -697.441956 
10.007797 -26.338434 -697.950378 
10.375343 -26.351292 -698.294189 
10.745019 -26.368467 -698.754150 
11.118915 -26.394569 -699.453369 
14.181801 -26.689629 -707.357666 
14.538527 -26.670177 -706.835205 
14.906768 -26.672304 -706.891357 
15.272900 -26.670631 -706.845642 
15.634377 -26.661119 -706.589722 
15.995749 -26.651863 -706.340332 
18.526436 -26.598820 -704.911072 
18.893814 -26.600657 -704.959106 
