-10.213000 2138.620117 -573.841980 
-7.587280 2226.000000 -543.887024 
22.462000 2182.129883 -552.020020 
10.047700 2279.820068 -524.150024 
46.972301 2237.449951 -529.416992 
17.076000 2330.350098 -511.097992 
61.550701 2290.780029 -513.771973 
23.745399 2359.909912 -506.522003 
63.434299 2336.820068 -505.040985 
21.583700 2389.969971 -500.523987 
58.495201 2385.580078 -495.766998 
90.398697 2362.659912 -489.608002 
-221.636993 2534.689941 -545.531982 
-159.606003 2518.510010 -536.127014 
-126.667000 2495.439941 -528.861023 
-128.845001 2473.189941 -531.565002 
-145.175003 2456.120117 -540.684998 
-168.037003 2474.790039 -544.655029 
-219.253006 2499.239990 -556.734985 
-155.876999 2489.600098 -532.388000 
-219.028000 2512.560059 -550.510010 
-157.104004 2429.729980 -536.739014 
-26.951500 2389.830078 -489.058990 
-18.308599 2347.209961 -501.029999 
-16.296600 2297.280029 -516.065979 
-27.498899 2247.590088 -533.190979 
-50.674198 2208.800049 -551.132996 
-83.057297 2184.139893 -568.575012 
-112.132004 2173.479980 -581.710022 
-173.138000 2174.689941 -602.257996 
-213.384995 2196.610107 -609.468994 
-250.447006 2237.820068 -613.843018 
-278.069000 2294.149902 -610.768005 
-288.460999 2349.760010 -600.931030 
-283.220001 2395.949951 -590.015015 
-104.712997 2397.260010 -521.653015 
-201.337997 2397.000000 -562.838013 
-200.401001 2356.120117 -572.653015 
-180.240005 2303.780029 -577.242004 
-156.401001 2249.729980 -579.333008 
-140.570007 2200.040039 -584.697998 
-97.816002 2311.110107 -544.007996 
-106.591003 2352.679932 -536.515991 
93.504303 2319.459961 -499.346985 
101.000999 2255.679932 -511.860992 
83.857399 2187.169922 -533.992004 
47.086700 2130.689941 -563.012024 
5.111570 2080.080078 -591.931030 
-31.507799 2055.590088 -610.784973 
-76.251503 2040.790039 -627.656006 
-109.139999 2040.010010 -638.741028 
-140.589005 2027.760010 -652.226013 
-167.192001 2033.310059 -657.088013 
-198.164001 2028.349976 -667.742004 
-231.130997 2032.609985 -677.919006 
-281.044006 2049.209961 -688.148987 
-325.264008 2079.959961 -693.250000 
-331.069000 2115.439941 -685.682007 
-382.942993 2134.870117 -694.567017 
-402.977997 2171.360107 -689.476990 
-431.054993 2221.129883 -685.890015 
-447.596008 2272.870117 -678.458008 
-446.346008 2315.159912 -671.731995 
-458.937012 2364.800049 -662.934998 
-453.377014 2410.780029 -649.271973 
-442.837006 2450.399902 -636.085022 
-424.322998 2489.229980 -623.851013 
-403.397003 2533.110107 -604.507019 
-333.259003 2472.629883 -597.073975 
-354.144012 2013.430054 -713.867004 
-391.989990 2050.449951 -714.182983 
-435.885986 2102.489990 -710.906982 
-474.609985 2159.429932 -707.132019 
-511.002014 2212.419922 -703.150024 
-532.736023 2280.800049 -693.645020 
-504.222992 2087.219971 -712.534973 
-553.716980 2173.629883 -706.543030 
-594.091980 2254.770020 -696.948975 
-607.916016 2344.899902 -681.409973 
-556.236023 2084.219971 -697.528992 
-611.463989 2161.969971 -690.111023 
-648.432007 2239.179932 -680.153992 
-666.474976 2314.649902 -668.109009 
-669.280029 2403.929932 -650.786011 
796.918030 1984.079956 34.892899 
818.517029 1948.420044 33.199001 
776.206970 1950.520020 -29.581800 
769.572021 1908.290039 -61.360699 
813.898010 1908.489990 7.547540 
716.244995 1903.680054 -124.865997 
657.239014 1904.859985 -184.848999 
571.768005 1909.359985 -252.973999 
490.863007 1936.410034 -298.931000 
404.877014 1945.869995 -351.984985 
354.987000 1949.949951 -384.330994 
303.552002 1950.390015 -417.869995 
206.850006 1940.410034 -479.988007 
109.307999 1911.439941 -540.614990 
-9.918700 1896.199951 -600.375977 
-119.342003 1893.079956 -650.281982 
-228.539993 1888.930054 -687.099976 
-378.606995 1893.349976 -720.520996 
-496.455994 1942.199951 -729.531006 
-577.112000 2016.239990 -722.487000 
-265.670013 1854.189941 -700.604980 
-418.572998 1865.459961 -730.893982 
-568.955994 1887.880005 -754.004028 
-651.607971 1952.180054 -752.601990 
-712.520996 2060.310059 -735.885010 
-652.189026 2126.290039 -712.007996 
360.489014 1910.770020 -397.480011 
464.884003 1901.930054 -327.105011 
853.463013 1912.050049 93.495399 
847.989990 1959.959961 107.658997 
816.793030 2010.329956 114.404999 
746.197998 2097.610107 119.693001 
649.939026 2199.209961 122.226997 
528.815002 2326.360107 132.451996 
389.406006 2456.040039 113.626999 
284.819000 2558.610107 102.636002 
210.608994 2654.590088 118.160004 
215.651001 2612.239990 62.920399 
137.942993 2674.510010 28.952101 
29.883101 2787.080078 12.002500 
50.135101 2822.870117 87.040703 
-32.311401 2841.300049 -15.098900 
-43.454102 2917.540039 78.584099 
-45.807301 2798.879883 -81.832802 
-91.476196 2842.459961 -102.044998 
-76.621498 2882.739990 -32.966702 
35.315899 2744.780029 -31.601200 
83.414597 2837.120117 132.218002 
142.455994 2758.610107 117.945999 
-2.778320 2927.500000 126.244003 
-75.683998 2922.570068 29.012501 
-75.398003 2949.780029 78.153503 
-94.790802 2981.969971 98.903503 
-126.967003 2873.600098 -117.404999 
-97.786697 2910.590088 -30.283600 
-91.220596 2934.679932 18.476601 
-94.909698 2959.320068 61.415600 
-73.850502 3003.060059 127.237999 
-124.841003 3030.520020 114.089996 
-137.630005 2979.330078 52.435501 
-145.438004 3006.129883 81.438202 
-172.158005 3048.689941 95.997803 
-153.470993 3093.489990 123.646004 
-125.904999 2951.389893 10.926200 
-140.641006 2929.560059 -43.526299 
-167.347000 2904.199951 -112.015999 
-177.595001 2855.449951 -200.276001 
-189.979996 2881.580078 -171.069000 
-209.673004 3153.250000 100.444000 
-219.578003 3112.760010 81.102600 
-203.449005 3032.649902 78.218300 
-244.307007 3076.889893 76.401802 
-183.048004 2995.090088 49.340900 
-174.731003 2965.439941 8.738140 
-176.649002 2938.050049 -42.311798 
-291.537994 2849.800049 -302.889008 
-234.320007 2857.800049 -245.837006 
-213.434006 2822.719971 -278.944000 
-295.670013 2865.919922 -259.118011 
-251.070007 2875.280029 -210.468994 
-216.526001 2891.909912 -157.507996 
-191.847000 2912.050049 -102.530998 
-353.390991 2860.149902 -336.427002 
-348.835999 2866.459961 -302.687988 
-181.539001 2815.969971 -296.893005 
-405.441986 2873.989990 -390.916992 
-445.194000 2833.120117 -442.580994 
-452.884003 2901.510010 -422.222992 
-495.682007 2858.719971 -460.921997 
-498.661987 2938.060059 -432.665985 
-562.700012 2809.030029 -512.367981 
-605.158997 2759.110107 -547.226013 
-667.117004 2860.199951 -544.911011 
-596.382996 2972.000000 -472.438995 
-467.609009 3047.600098 -370.098999 
-553.466980 3083.870117 -400.104004 
-530.156006 3200.399902 -319.186005 
-459.985992 3142.280029 -311.165009 
-500.342010 3273.669922 -240.391006 
-430.140015 3195.979980 -251.863007 
-465.574005 3303.469971 -173.653000 
-403.502991 3253.229980 -165.289001 
-460.622009 3356.620117 -95.895897 
-378.833008 3273.280029 -98.251404 
-403.079987 3328.760010 -44.463600 
-357.924988 3284.469971 -48.858200 
-378.566986 3333.030029 40.739101 
-323.321991 3266.510010 -9.996040 
-322.273010 3285.060059 84.571503 
-286.872009 3239.070068 37.325802 
-249.126999 3200.929932 78.785698 
-395.170013 2884.520020 -349.743011 
-385.674011 2882.889893 -319.924011 
-407.912994 2927.169922 -352.945007 
-404.579010 2912.750000 -316.001007 
-439.006989 2971.060059 -389.958008 
-421.489014 2947.209961 -380.266998 
-473.993988 2979.310059 -403.765991 
-435.937988 3026.399902 -369.369995 
-428.531006 3095.860107 -325.578003 
-409.859009 3076.469971 -311.877991 
-420.278015 2994.600098 -363.253998 
-403.389008 3150.280029 -270.601013 
-396.089996 3125.209961 -268.365997 
-396.265015 3192.040039 -227.253998 
-380.324005 3150.649902 -216.582001 
-376.234985 3213.629883 -174.455994 
-357.602997 3177.929932 -146.201996 
-364.945007 3226.189941 -129.000000 
-338.617004 3244.159912 -69.623001 
-350.539001 3232.139893 -99.159599 
-333.273010 3192.840088 -82.721497 
-306.635010 3225.239990 -30.295000 
-303.410004 3184.139893 -32.463299 
-276.542999 3201.250000 14.573400 
-289.989990 3161.969971 -1.847250 
-244.091003 3175.669922 59.343399 
-263.453003 3155.379883 36.309898 
-407.675995 2986.459961 -321.234009 
-409.042999 2948.469971 -297.345001 
-398.151001 3044.729980 -267.112000 
-403.773987 3017.649902 -239.740997 
-385.347992 3080.840088 -203.673996 
-382.662994 3071.739990 -169.606995 
-365.195007 3117.620117 -151.647003 
-361.908997 3094.580078 -125.833000 
-341.217010 3109.850098 -81.521797 
-325.226990 3117.570068 -42.368099 
-300.782013 3118.419922 10.583300 
-282.342987 3108.199951 38.975399 
-244.001007 3077.120117 38.534401 
-261.006989 3085.820068 -6.509460 
-273.884003 3082.399902 -43.487400 
-299.411011 3079.120117 -85.159302 
-316.410004 3060.620117 -133.093994 
-339.256989 3036.449951 -182.718994 
-350.023010 2994.290039 -233.906006 
-370.040985 2944.070068 -283.718994 
-375.260010 2914.879883 -299.507996 
-349.979004 2939.879883 -271.488007 
-343.876007 2904.629883 -283.559998 
-300.042999 2911.649902 -242.417007 
-261.350006 2925.169922 -196.444000 
-233.406006 2943.959961 -149.914001 
-213.376007 2961.050049 -101.624001 
-198.404999 2982.419922 -42.637699 
-194.431000 3002.379883 5.361580 
-194.266998 3012.989990 40.952499 
-318.388000 2960.159912 -233.149994 
-290.144989 2983.580078 -186.649994 
-267.394989 3005.520020 -140.401001 
-249.044006 3021.050049 -96.542503 
-231.028000 3034.010010 -44.046001 
-220.335007 3041.389893 2.057730 
-213.358002 3042.320068 42.480499 
692.380005 2141.290039 -8.443370 
666.703003 2162.800049 -14.782100 
689.088013 2128.139893 -17.858801 
675.965027 2142.580078 -18.892200 
659.231018 2164.550049 -20.790100 
-659.322998 2660.080078 -593.406982 
-729.263977 2501.459961 -647.119995 
-730.992004 2356.070068 -675.304016 
-716.302002 2240.070068 -696.991028 
-798.437012 2175.429932 -723.818970 
-827.375000 2292.830078 -707.911987 
-781.192017 2303.340088 -697.888977 
-820.142029 2393.590088 -689.557007 
-898.468018 2273.580078 -719.689026 
-922.236023 2508.850098 -696.280029 
-834.398987 2613.719971 -659.619019 
-750.567993 2741.580078 -608.200012 
-782.677002 1884.170044 -775.043030 
-860.408997 2107.139893 -743.237976 
-690.377991 1904.199951 -765.392029 
-456.994995 3419.600098 75.045097 
-463.528015 3404.820068 -5.761060 
-557.030029 3526.250000 76.248497 
-551.174988 3412.250000 -152.285004 
-574.101013 3483.860107 -86.777298 
-594.637024 3389.330078 -232.888000 
-571.827026 3530.689941 18.632401 
-546.023987 3482.550049 -32.725601 
-624.804993 3304.389893 -327.949005 
-1008.150024 2414.020020 -721.184021 
-2116.810059 1290.280029 11.491800 
-2060.300049 1306.270020 -143.335007 
-1990.300049 1367.729980 -287.272003 
-1896.729980 1460.180054 -427.485992 
-1758.180054 1575.239990 -552.948975 
-1644.469971 1767.439941 -647.085022 
-1479.069946 1873.489990 -696.421997 
-1340.979980 2066.540039 -729.809998 
-1248.829956 2166.439941 -736.956970 
-1140.310059 2305.219971 -739.382996 
-1013.570007 2174.570068 -738.435974 
-924.773010 2043.719971 -753.406982 
-1067.040039 1920.599976 -750.825012 
-1155.550049 2058.370117 -738.927002 
-1242.760010 1889.869995 -726.737976 
-1180.369995 1764.280029 -735.380005 
-1330.630005 1651.479980 -695.734985 
-1515.099976 1528.030029 -626.401978 
-1640.010010 1340.689941 -528.747009 
-1756.439941 1269.280029 -431.458008 
-1854.949951 1193.949951 -303.429993 
-1936.650024 1124.579956 -147.218002 
-1996.670044 1131.160034 2.046340 
-950.572021 1775.959961 -786.468018 
-1082.829956 1668.030029 -765.317993 
-1219.849976 1510.719971 -721.181030 
-1373.369995 1342.920044 -643.752014 
-1535.709961 1202.060059 -545.271973 
-832.356995 1785.109985 -793.270020 
-865.789978 1771.020020 -799.721008 
-911.859985 1678.880005 -813.591003 
-996.791992 1559.540039 -817.179993 
-1042.010010 1580.540039 -794.413025 
-1121.479980 1392.300049 -800.245972 
-1160.050049 1440.199951 -760.456970 
-1318.760010 1218.979980 -675.432983 
-1286.750000 1150.469971 -706.174988 
-1234.050049 1224.609985 -748.765015 
-884.127014 1664.489990 -811.703979 
-970.383972 1528.510010 -822.476990 
-1071.339966 1400.979980 -815.370972 
-1226.030029 1188.040039 -780.244019 
-735.947021 1855.130005 -781.875977 
-738.504028 1772.920044 -806.327026 
-809.818970 1649.810059 -836.234009 
-919.502991 1483.140015 -871.843994 
-1076.680054 1290.260010 -891.187012 
-1174.540039 1152.589966 -868.929016 
-675.565002 1732.160034 -832.043030 
-774.703003 1592.020020 -871.896973 
-790.116028 1493.979980 -926.073975 
-945.137024 1397.569946 -913.398987 
-870.229980 1354.459961 -975.104980 
-1029.920044 1242.849976 -951.039001 
-1145.459961 1113.089966 -913.747986 
-718.518005 1440.300049 -978.672974 
-593.767029 1608.250000 -914.226990 
-536.726990 1538.949951 -960.478027 
-437.954987 1621.770020 -933.299011 
-371.524994 1579.619995 -941.487000 
-497.196014 1487.630005 -963.599976 
-619.992981 1689.339966 -861.000000 
-555.229980 1788.869995 -805.846008 
-485.710999 1740.800049 -838.302979 
-439.437988 1682.550049 -891.411987 
-353.372986 1804.910034 -788.007996 
-328.300995 1753.689941 -849.013000 
-292.822998 1686.219971 -901.392029 
-664.744995 1404.069946 -980.086975 
-723.752991 1391.500000 -992.129028 
-785.338989 1330.380005 -995.268005 
-874.065002 1268.530029 -992.797974 
-980.627991 1210.780029 -977.221985 
-1127.270020 1054.670044 -928.765991 
-1159.369995 1089.709961 -886.935974 
-1194.839966 1104.869995 -824.382019 
-1210.979980 1146.160034 -801.658997 
-1166.109985 1057.079956 -868.594971 
-1116.719971 989.021973 -922.706970 
-948.869995 1164.099976 -964.500977 
-826.731018 1239.089966 -971.030029 
-779.534973 1271.209961 -974.179016 
-735.296021 1292.619995 -961.681030 
-607.815979 1368.880005 -956.599976 
-477.045013 1436.670044 -937.349976 
-356.579010 1505.949951 -910.606018 
-235.468994 1589.910034 -895.708984 
-128.966995 1650.150024 -861.645996 
-146.419998 1694.949951 -874.052979 
-232.710999 1642.630005 -908.775024 
-172.084000 1751.199951 -853.005005 
-220.589996 1803.050049 -802.361023 
-64.182404 1710.859985 -821.908020 
-80.318802 1718.579956 -837.112976 
-101.184998 1746.949951 -836.820984 
-123.539001 1780.040039 -825.919983 
-135.975006 1796.579956 -811.585022 
-165.365997 1831.199951 -720.669983 
-130.589996 1807.560059 -739.270996 
-105.211998 1772.560059 -766.328979 
-84.453697 1738.500000 -804.989990 
-63.049999 1728.069946 -791.773010 
-106.551003 1808.449951 -704.078979 
-80.249001 1764.199951 -749.724976 
725.249023 1964.750000 14.746100 
703.150024 1945.959961 -54.503201 
644.153992 1940.250000 -126.345001 
571.424988 1944.459961 -190.712006 
509.153992 1926.810059 -255.112000 
324.769989 1899.859985 -396.290009 
429.239014 1909.760010 -323.369995 
774.693970 1954.410034 101.098000 
536.357971 2167.669922 37.548698 
523.622986 2125.389893 -49.404099 
423.907013 2161.050049 -123.198997 
425.774994 2098.870117 -179.585007 
373.416992 2057.489990 -253.492996 
272.684998 1966.640015 -390.747009 
312.640991 2031.520020 -315.174988 
367.438995 2311.550049 30.118799 
366.377014 2255.229980 -49.932598 
335.114014 2232.699951 -111.515999 
288.885010 2213.929932 -181.166000 
261.492004 2167.669922 -248.348007 
205.710007 2027.869995 -384.722992 
229.699997 2086.169922 -325.622009 
400.359009 2347.520020 116.771004 
465.872986 963.586975 47.875801 
448.545990 956.393005 28.142900 
425.649994 946.880005 22.160500 
407.371002 943.223022 64.885300 
431.415009 948.429993 96.268898 
462.511993 961.294983 91.779602 
470.223999 965.903015 89.683998 
399.056000 936.882996 42.031700 
433.984985 958.364014 59.998798 
100.396004 2741.020020 253.147995 
92.873901 2745.850098 58.246300 
-109.439003 3048.120117 186.977997 
-110.049004 3048.300049 129.798996 
659.627014 2152.919922 -29.715500 
686.463989 2126.909912 -20.715900 
669.486023 2139.979980 -27.426600 
657.372986 2154.949951 346.819000 
686.778992 2125.639893 336.877991 
670.588989 2136.969971 343.571014 
-967.286011 3925.030029 182.337006 
-1000.780029 3936.479980 158.087997 
-986.658997 3925.340088 198.938995 
-967.760010 3924.909912 133.889999 
-987.390015 3925.239990 117.295998 
-1906.260010 -303.321014 -246.884003 
-1474.770020 -299.372009 -379.807007 
-1553.000000 -298.196014 -355.388000 
-535.369019 -298.656006 -359.049988 
-483.062988 -304.432007 451.002991 
-600.765015 -299.506012 625.172974 
-688.768982 -299.325012 680.244019 
-1378.489990 -299.704987 607.750000 
-1470.109985 -297.915985 578.366028 
-1101.969971 -299.579987 683.262024 
-1242.130005 -300.556000 646.883972 
-1699.660034 -295.421997 468.221985 
-1887.130005 -302.194000 353.707001 
-1366.530029 169.283997 638.380005 
-1418.040039 162.544006 623.169006 
-1411.739990 120.865997 616.633972 
-1665.209961 -245.281006 486.291992 
-1696.650024 -243.425995 468.923004 
-1425.819946 -255.699005 590.023987 
-1471.650024 -252.766998 573.724976 
-1501.969971 963.083008 971.200989 
-1528.459961 988.211975 943.768005 
-1535.550049 967.281006 938.213989 
-1512.520020 930.067993 963.578979 
-1469.969971 893.526001 983.674011 
-1462.119995 911.020020 988.635010 
-1552.800049 949.658997 924.104004 
-1561.630005 877.948975 905.043030 
-1566.449951 899.169983 908.752991 
-1605.469971 894.887024 860.515015 
-1545.079956 858.603027 893.396973 
-1510.949951 863.895996 928.333008 
-1463.400024 842.956970 938.322021 
-1474.369995 854.596008 957.848999 
-1425.869995 827.830017 948.896973 
-1454.609985 834.705017 927.249023 
-1402.219971 817.729004 946.814026 
-1392.130005 820.338989 961.367981 
-1425.290039 286.402008 735.862976 
-1427.000000 268.076996 731.465027 
-1386.150024 297.444000 725.182007 
-1403.300049 315.312012 751.237000 
-1445.030029 288.806000 757.481018 
-1359.680054 358.295990 759.468994 
-1385.469971 359.259003 782.330994 
-1533.739990 101.887001 629.577026 
-1518.010010 84.600197 605.310974 
-1485.430054 127.066002 622.083984 
-1451.180054 179.559006 646.354004 
-1434.180054 178.209000 641.758972 
-1387.819946 218.886002 647.650024 
-1513.729980 140.330002 644.208984 
-1458.900024 184.867996 647.056030 
-1525.880005 382.936005 807.445984 
-1518.579956 403.342987 803.406982 
-1566.829956 396.024994 798.911011 
-1524.920044 421.710999 800.486023 
-1483.859985 431.450012 812.429016 
-1549.010010 108.627998 636.453979 
-1662.199951 61.311901 659.799011 
-1657.540039 107.980003 682.601990 
-1680.109985 100.421997 681.518005 
-1659.189941 155.223999 704.281982 
-1641.060059 114.207001 680.732971 
-1646.430054 189.794006 720.708008 
-1662.310059 199.031998 724.242981 
-1635.969971 147.595993 693.715027 
-1630.819946 112.440002 676.330994 
-1621.770020 108.961998 677.513000 
-1626.050049 143.923996 692.643005 
-1617.569946 175.048004 713.612000 
-1622.369995 179.337997 711.815979 
-1603.140015 199.830002 730.124023 
-1610.859985 168.503006 712.062012 
-1447.349976 195.817993 654.843018 
-1403.300049 220.313004 651.221008 
-1548.290039 134.425003 653.960022 
-1567.150024 106.514000 646.794006 
-1479.569946 828.195007 913.159973 
-1439.819946 819.171021 930.721008 
-1417.099976 805.635010 938.331970 
-1543.780029 457.496002 833.697998 
-1530.290039 439.553009 816.273987 
-1506.969971 459.937012 829.413025 
-1567.910034 428.997009 811.104004 
-1629.189941 377.164001 798.723999 
-1621.800049 397.924988 793.818970 
-1674.489990 397.118988 788.549011 
-1620.199951 412.619995 790.479004 
-1624.400024 423.509003 800.890015 
-1679.219971 422.966003 791.546997 
-1628.959961 439.403015 815.481018 
-1385.709961 578.030029 897.479004 
-1353.369995 595.651978 900.604004 
-1398.280029 594.187988 888.848022 
-1481.689941 506.420990 848.601013 
-1498.280029 508.437012 860.754028 
-1452.819946 566.471985 879.296021 
-1462.300049 503.929993 841.747009 
-1446.989990 598.130005 897.708008 
-1426.489990 594.520020 889.216003 
-1387.209961 610.171997 891.997009 
-1369.670044 556.971985 903.533020 
-1409.479980 542.046997 884.146973 
-1446.449951 488.662994 848.396973 
-1423.060059 477.471008 859.822021 
-1748.550049 492.947998 777.633972 
-1719.010010 515.677979 799.302979 
-1770.750000 505.200989 763.846008 
-1503.609985 538.229004 870.825989 
-1527.770020 497.101013 849.536011 
-1784.030029 348.135986 753.906006 
-1783.180054 323.864990 755.624023 
-1759.040039 364.308014 767.825012 
-1762.930054 388.265991 764.510986 
-1794.930054 354.085999 751.531006 
-1720.540039 425.735992 790.732971 
-1723.780029 412.260010 777.677979 
-1720.250000 399.795013 772.830017 
-1719.859985 383.993988 779.005005 
-1724.790039 362.529999 781.822998 
-1724.109985 203.095001 708.041016 
-1743.079956 181.830994 703.192993 
-1726.729980 180.171997 696.888000 
-1702.280029 232.634995 718.530029 
-1714.349976 240.046997 733.156006 
-1674.800049 258.273010 733.015991 
-1691.260010 226.294006 709.505981 
-1636.290039 259.966003 745.052002 
-1639.880005 273.019012 758.479004 
-1622.750000 243.886002 749.018982 
-1653.520020 239.084000 733.015991 
-1677.729980 213.401993 716.830017 
-1700.989990 187.087006 702.682007 
-1716.310059 157.210007 697.330017 
-1731.569946 116.156998 669.780029 
-1703.680054 114.177002 680.530029 
-1742.290039 78.283302 634.096008 
-1758.329956 113.228996 645.473999 
-1798.449951 91.391998 601.362000 
-1786.270020 126.330002 639.466003 
-1696.010010 66.606400 658.708984 
-1845.380005 -263.273987 382.752991 
-1808.119995 -234.962006 417.035004 
-1827.150024 -212.046005 416.950012 
-1768.160034 -185.244003 453.256989 
-1769.819946 -239.863007 428.181000 
-1607.439941 -45.831100 538.398010 
-1655.900024 -79.933098 522.827026 
-1626.969971 -95.308601 515.533020 
-1844.270020 69.844398 569.952026 
-1815.479980 64.056099 581.434021 
-1935.729980 -153.904999 393.888000 
-1902.660034 -126.730003 434.890991 
-1915.880005 -107.927002 431.095001 
-1749.130005 -59.419701 565.960022 
-1718.400024 -65.968597 551.567017 
-1697.319946 -41.172401 575.810974 
-1859.010010 165.792007 637.718994 
-1888.010010 172.604996 621.245972 
-1872.979980 137.483002 611.419006 
-1882.510010 116.315002 582.906006 
-1843.020020 120.445000 609.669006 
-1894.589966 47.391300 534.538025 
-1884.469971 32.737801 538.622009 
-1946.829956 30.852900 492.957001 
-1916.000000 65.634499 523.382019 
-1974.459961 30.795401 461.684998 
-1968.979980 7.717800 455.640991 
-1933.060059 -94.298897 430.798004 
-1900.760010 -66.087898 472.779999 
-2044.569946 183.667999 441.846985 
-2009.989990 209.638000 504.428009 
-2022.420044 221.951996 470.063995 
-1988.040039 358.802002 450.177002 
-2023.530029 327.998993 401.087006 
-2010.310059 315.850006 428.053009 
-2023.500000 288.407013 436.225006 
-1983.949951 320.614990 480.782990 
-2024.869995 245.807007 470.363007 
-2055.709961 210.759003 414.799988 
-2062.679932 175.261002 390.588013 
-2057.610107 154.223007 415.259003 
-2040.319946 305.005005 265.871002 
-2045.760010 318.880005 252.414993 
-2051.159912 274.888000 227.468994 
-2043.469971 301.903992 283.403992 
-2035.170044 329.582001 312.151001 
-1896.569946 -265.723999 353.799988 
-2010.270020 -301.578003 228.326996 
-2020.959961 -307.277008 162.095001 
-1986.380005 -312.213013 203.218002 
-2093.310059 106.022003 292.304993 
-2098.050049 78.755699 290.890015 
-2077.040039 106.314003 347.950012 
-2082.399902 126.846001 304.416992 
-2093.350098 107.139000 270.101990 
-2091.010010 138.246002 296.213989 
-2104.219971 131.033005 264.752991 
-2090.530029 162.001999 330.123993 
-2077.899902 186.923996 370.692993 
-2091.550049 202.233002 346.816010 
-2084.250000 235.686996 334.186005 
-2094.919922 209.229004 291.605988 
-2086.790039 203.600006 151.063995 
-2067.590088 235.542007 195.251999 
-2079.030029 255.169998 167.647995 
-2060.360107 230.136002 216.940994 
-2080.250000 212.110992 237.166000 
-2064.909912 252.130005 252.731995 
-2092.850098 173.537003 250.789993 
-2095.929932 135.112000 207.373993 
-2132.550049 88.935699 160.839996 
-2105.879883 124.866997 164.378006 
-2124.510010 122.283997 121.468002 
-2087.679932 166.919006 151.533005 
-2101.479980 182.082001 111.332001 
-2129.449951 154.386002 78.831001 
-2122.689941 135.298996 87.023903 
-2151.840088 117.731003 48.092400 
-2140.100098 167.438004 73.651398 
-2145.110107 94.883499 86.302101 
-2145.530029 -33.848099 177.292999 
-2151.860107 -54.596298 138.162994 
-2136.629883 -50.705799 183.339996 
-2153.459961 -99.045502 119.257004 
-2160.770020 -115.129997 95.068001 
-2164.090088 -135.244995 97.056297 
-2162.100098 -184.419998 73.613602 
-2156.419922 -164.548004 94.028999 
-2149.229980 -127.371002 49.470699 
-2152.709961 -104.106003 48.413101 
-2152.310059 -127.619003 29.559999 
-2158.419922 -82.653397 49.149101 
-2154.889893 -82.947304 64.041100 
-2161.010010 -184.436005 50.811298 
-2153.820068 -218.748993 46.398102 
-2137.100098 -206.197998 103.412003 
-2137.199951 -227.388000 96.805000 
-2124.840088 -212.630005 128.871994 
-1993.130005 -313.350006 97.809097 
-2037.119995 -305.378998 121.969002 
-2044.510010 -304.520996 97.085503 
-2066.760010 -292.496002 155.044998 
-2051.669922 -304.102997 70.992897 
-2099.929932 -289.226013 92.715897 
-2057.229980 -303.294006 45.870602 
-1998.180054 -312.779999 54.009998 
-2065.169922 270.476013 81.088097 
-2061.669922 293.509003 78.409103 
-2070.239990 257.950989 67.346397 
-2081.770020 275.337006 104.670998 
-2096.600098 241.932007 83.080704 
-2119.699951 239.283005 91.760002 
-2105.399902 207.091995 61.960899 
-2068.590088 241.322006 76.857101 
-2131.639893 207.097000 87.577499 
-2106.560059 249.804001 111.989998 
-2154.580078 161.421005 56.025398 
-2079.919922 273.583008 151.490997 
-2079.590088 288.140991 137.072006 
-2059.889893 305.838013 196.529999 
-2055.639893 300.058014 131.026001 
-2051.909912 333.842987 119.329002 
-2054.320068 314.532013 134.251999 
-2048.290039 343.036011 165.964005 
-1663.739990 903.935974 843.017029 
-1648.209961 894.729980 853.161987 
-1640.709961 930.137024 840.168030 
-1727.030029 603.062012 830.916992 
-1759.369995 574.534973 800.203979 
-1708.560059 595.684998 818.343018 
-1844.369995 635.893982 781.375000 
-1843.640015 604.065002 771.947021 
-1790.729980 648.401001 842.469971 
-2077.899902 247.035995 42.221500 
-2085.159912 220.690994 38.457001 
-2097.570068 189.296997 30.628500 
-2131.290039 172.268997 23.618200 
-2101.699951 188.807999 0.509354 
-2093.080078 197.188995 26.754801 
-2045.829956 246.542999 -95.619301 
-2040.239990 268.769012 -82.998199 
-2024.900024 292.951996 -111.192001 
-2056.709961 229.707001 -55.613602 
-2044.180054 271.355011 -56.729599 
-2087.280029 210.466003 -12.128600 
-2077.669922 199.843994 -31.566799 
-2090.810059 176.022003 -33.863098 
-2067.620117 191.934998 -68.136597 
-2068.020020 200.996002 -43.933300 
-2104.379883 143.682007 -51.526199 
-2103.879883 175.328995 -20.907801 
-2135.449951 99.522003 -58.382500 
-2129.830078 96.829803 -80.531799 
-2142.010010 51.280800 -106.783997 
-2135.209961 87.554398 -119.949997 
-2117.169922 102.130997 -94.024597 
-2111.060059 130.673996 -90.476501 
-2149.780029 86.775902 -46.588299 
-2140.830078 129.679993 -17.287100 
-2152.889893 149.626999 25.275101 
-2159.030029 121.751999 20.265900 
-2152.750000 94.643402 -5.893740 
-2152.939941 105.019997 22.524200 
-2154.939941 65.396004 -30.162800 
-2160.189941 76.209503 -37.137600 
-2157.000000 36.214699 -57.519798 
-2158.129883 23.414101 -90.402199 
-2151.939941 13.372500 -84.059601 
-2150.639893 6.512100 -80.677696 
-2149.340088 24.916500 -51.976601 
-2142.909912 -16.379101 -82.910202 
-2147.439941 -5.027510 -86.236397 
-2143.479980 -21.093599 -124.915001 
-2147.840088 85.348999 19.273001 
-2149.469971 -76.649902 -29.754700 
-2147.879883 -50.048901 -8.645440 
-2151.030029 -66.406799 -41.341099 
-2143.219971 -24.101700 -67.699097 
-2145.320068 -2.210250 -37.409199 
-2096.120117 201.156998 -3.333390 
-2085.810059 225.796997 2.424370 
-2156.310059 52.291801 -70.831100 
-2147.919922 21.474001 -108.679001 
-2140.270020 14.002000 -126.049004 
-2141.860107 -14.671700 -140.973007 
-1366.699951 135.300995 -362.251007 
-1413.599976 89.200104 -338.774994 
-1417.869995 126.110001 -348.722992 
-1381.699951 61.582401 -357.975006 
-1431.380005 53.574699 -330.835999 
-1446.390015 14.538900 -326.384003 
-1486.109985 44.094898 -317.341003 
-1537.359985 -82.828697 -283.166992 
-1552.510010 -39.452099 -283.414001 
-1503.069946 -46.970402 -299.666992 
-1639.670044 -204.065002 -259.856995 
-1665.180054 -172.292999 -232.658997 
-1629.160034 -163.899002 -249.091003 
-1625.739990 -111.503998 -254.473999 
-1590.800049 -146.065994 -264.895996 
-1696.510010 -198.384003 -228.485001 
-1697.550049 -162.949005 -232.164993 
-1735.680054 -247.850998 -253.804001 
-1777.770020 -294.403992 -290.175995 
-1776.930054 -247.686996 -257.329010 
-1703.760010 -248.972000 -267.256012 
-1512.500000 -254.022003 -347.567993 
-1555.339966 -253.852997 -333.575989 
-1464.920044 -200.843994 -355.589996 
-1469.250000 -257.029999 -368.259003 
-1424.189941 -258.494995 -387.891998 
-1503.000000 853.231995 -647.689026 
-1537.060059 850.322998 -599.794983 
-1532.099976 873.304016 -604.242004 
-1355.310059 928.517029 -695.973999 
-1374.260010 963.705017 -655.107971 
-1346.680054 948.737976 -676.979980 
-1408.189941 944.093018 -640.739990 
-1416.540039 972.151978 -600.742981 
-1477.680054 915.393005 -613.786011 
-1522.160034 895.544006 -591.669983 
-1525.010010 906.086975 -545.679016 
-1491.569946 889.370972 -648.588989 
-1442.599976 885.895020 -669.244019 
-1443.920044 861.361023 -685.369995 
-1422.310059 893.554993 -653.354980 
-1403.140015 904.333984 -656.346985 
-1367.599976 866.632996 -701.007996 
-1370.189941 912.489014 -690.060974 
-1339.650024 892.289001 -714.343018 
-1512.280029 819.288025 -641.390015 
-1461.790039 803.447021 -671.432007 
-1469.510010 785.331970 -666.401001 
-1554.180054 831.210022 -584.531982 
-1561.040039 757.908997 -564.502991 
-1604.780029 771.370972 -509.953003 
-1565.939941 784.603027 -581.546997 
-1510.199951 752.627014 -605.549988 
-1544.619995 740.218018 -551.646973 
-1473.790039 746.422974 -640.528015 
-1462.579956 735.697998 -621.247986 
-1425.290039 722.135986 -632.604004 
-1453.790039 728.262024 -610.671021 
-1401.650024 713.177979 -630.682007 
-1391.579956 715.911987 -645.237000 
-1423.609985 229.414993 -463.824005 
-1384.839966 243.240997 -452.019989 
-1424.810059 213.929993 -462.199005 
-1483.770020 208.755005 -494.733002 
-1501.359985 192.570999 -486.750000 
-1524.119995 197.539001 -499.787994 
-1466.439941 232.091003 -504.769012 
-1442.170044 227.781006 -486.782013 
-1401.369995 255.716003 -476.726990 
-1371.400024 194.589005 -371.928009 
-1344.010010 211.246994 -376.687988 
-1384.150024 178.839005 -373.510986 
-1541.109985 17.490299 -356.588013 
-1517.079956 52.460400 -366.639008 
-1532.739990 63.534901 -419.223999 
-1484.660034 90.175003 -376.299988 
-1450.339966 137.320007 -400.532990 
-1433.579956 137.395996 -388.329010 
-1513.219971 97.733101 -427.691986 
-1458.670044 141.048996 -401.933014 
-1401.579956 176.875000 -378.519012 
-1371.969971 196.595993 -379.058014 
-1525.719971 304.842987 -528.703003 
-1566.579956 314.131012 -518.174988 
-1518.770020 324.260986 -522.445984 
-1524.170044 340.365997 -517.232971 
-1484.050049 351.880005 -528.997986 
-1548.400024 67.684799 -433.852997 
-1361.890015 222.955994 -431.783997 
-1379.339966 192.326996 -415.251007 
-1394.619995 197.033997 -437.371002 
-1635.239990 93.535202 -470.376007 
-1629.979980 62.938900 -462.329010 
-1641.150024 65.618797 -465.209991 
-1625.069946 90.120102 -469.826996 
-1620.869995 60.271400 -463.367004 
-1621.239990 120.900002 -478.768005 
-1616.619995 117.197998 -480.368011 
-1602.560059 139.188004 -487.795990 
-1609.939941 111.950996 -479.910004 
-1449.089966 149.419006 -404.342987 
-1345.699951 219.113998 -395.393005 
-1373.699951 194.677994 -393.556000 
-1406.619995 172.514999 -404.640015 
-1464.599976 140.106995 -426.319000 
-1566.119995 64.176201 -442.944000 
-1547.380005 89.524696 -443.489990 
-1602.900024 701.801025 -485.726013 
-1570.689941 720.166016 -528.106995 
-1583.260010 684.620972 -513.531006 
-1579.300049 652.505981 -518.247009 
-1607.670044 622.921997 -475.436005 
-1523.410034 727.168030 -570.517029 
-1552.400024 601.533020 -563.119995 
-1592.410034 555.708984 -515.221008 
-1566.479980 618.418030 -536.486023 
-1519.439941 648.366028 -583.864014 
-1538.469971 591.145020 -575.330994 
-1478.839966 721.716980 -595.590027 
-1510.229980 708.023987 -581.927002 
-1439.150024 713.304016 -614.427002 
-1416.410034 700.771973 -622.442017 
-1519.489990 510.028015 -598.398987 
-1529.560059 471.313995 -589.114990 
-1543.520020 481.868988 -585.357971 
-1358.939941 592.893982 -633.768982 
-1380.969971 557.612000 -624.955994 
-1397.589966 562.356018 -620.882019 
-1341.040039 577.677979 -638.994019 
-1362.589966 550.184021 -620.460022 
-1543.209961 370.015991 -548.330017 
-1506.199951 375.045990 -543.531006 
-1529.020020 355.487000 -532.075989 
-1566.520020 343.532013 -527.851990 
-1619.510010 325.941010 -507.880005 
-1622.020020 311.730988 -512.625000 
-1678.510010 331.276001 -508.774994 
-1623.380005 335.131989 -517.723022 
-1627.089966 348.917999 -533.447998 
-1385.020020 488.112000 -602.479980 
-1397.699951 502.484009 -591.742981 
-1352.650024 506.057007 -603.877014 
-1497.569946 418.782990 -571.304993 
-1480.959961 418.674011 -558.708984 
-1452.150024 474.231995 -584.598022 
-1461.660034 418.000000 -551.880005 
-1446.810059 502.501007 -600.116028 
-1426.359985 500.678009 -591.809998 
-1387.099976 517.255005 -593.065979 
-1369.000000 469.388000 -610.997009 
-1408.900024 454.204010 -592.328979 
-1423.770020 395.084015 -573.531006 
-1446.650024 405.117004 -560.718994 
-1621.310059 500.364990 -505.513000 
-1637.359985 520.174011 -460.343994 
-1615.650024 487.316010 -543.674011 
-1659.069946 464.917999 -498.875000 
-1678.229980 413.973999 -524.732971 
-1717.520020 413.931000 -508.493011 
-1685.359985 425.217010 -526.049011 
-1689.839966 439.112000 -521.403015 
-1651.939941 442.132996 -543.770996 
-1737.569946 423.576996 -463.282013 
-1698.020020 442.492004 -485.802002 
-1704.040039 443.221985 -436.355988 
-1748.670044 392.838013 -490.802002 
-1768.800049 398.906006 -472.595001 
-1824.089966 376.442993 -414.348999 
-1788.540039 402.157013 -429.498993 
-1803.589966 401.337006 -380.550995 
-1691.089966 350.707001 -525.802002 
-1721.469971 330.678009 -510.529999 
-1737.869995 340.368011 -511.635986 
-1639.869995 365.445007 -537.697998 
-1527.630005 407.105011 -560.898010 
-1502.430054 445.938995 -579.223022 
-1782.609985 259.057007 -489.800995 
-1756.390015 272.830994 -498.296997 
-1781.530029 237.113998 -494.196991 
-1794.300049 264.053986 -487.244995 
-1761.939941 296.040009 -492.408997 
-1723.410034 319.362000 -498.587006 
-1719.949951 307.601013 -496.335999 
-1723.229980 135.074997 -473.919006 
-1726.469971 114.414001 -468.134003 
-1743.000000 114.591003 -472.341003 
-1713.339966 166.770996 -487.210999 
-1701.329956 162.348007 -477.877014 
-1673.810059 186.257996 -484.227997 
-1690.260010 157.940994 -472.056000 
-1638.280029 200.072998 -498.937988 
-1634.839966 189.796997 -490.566986 
-1621.060059 175.912994 -495.084991 
-1652.459961 170.330994 -485.971008 
-1660.829956 135.186005 -484.377014 
-1676.219971 146.324997 -478.024994 
-1699.560059 121.987000 -471.532013 
-1715.609985 94.038002 -470.652008 
-1703.439941 59.301399 -464.583008 
-1731.650024 58.372898 -456.815002 
-1852.290039 -269.348999 -292.296997 
-1828.040039 -222.835999 -328.803009 
-1814.099976 -244.072006 -302.355988 
-1770.150024 -197.772003 -285.126007 
-1775.780029 -169.858994 -346.356995 
-1737.780029 -165.360992 -288.053009 
-1704.510010 -136.675003 -299.363007 
-1701.140015 -107.955002 -371.272003 
-1655.510010 -101.066002 -309.812988 
-1608.160034 -67.718903 -308.378998 
-1572.680054 -22.923901 -340.557007 
-1594.400024 -10.551100 -400.877014 
-1798.300049 38.515999 -416.308990 
-1813.869995 14.835500 -406.036987 
-1843.099976 18.643801 -396.522003 
-1758.969971 -126.086998 -387.980011 
-1717.380005 -93.713997 -400.493011 
-1777.099976 -150.085007 -372.665985 
-1789.500000 -136.673004 -384.372986 
-1796.760010 -172.582993 -359.362000 
-1812.739990 -191.716003 -349.161011 
-1809.219971 -174.389999 -358.014008 
-1830.680054 -206.737000 -338.923004 
-1934.390015 -174.789993 -296.700989 
-1914.689941 -134.613007 -312.786987 
-1901.300049 -151.373001 -326.628998 
-1748.239990 -90.586197 -410.946014 
-1696.900024 -73.038300 -413.261993 
-1858.020020 98.448799 -432.079010 
-1871.910034 74.257004 -417.990997 
-1887.040039 104.105003 -419.135986 
-1841.739990 61.205700 -418.648010 
-1881.239990 57.143299 -399.700012 
-1883.339966 -14.346500 -376.763000 
-1893.270020 -1.443840 -371.294006 
-1945.739990 -16.108299 -340.031006 
-1914.699951 14.418300 -359.548004 
-1967.890015 -35.359798 -314.990997 
-1973.459961 -15.485700 -315.806000 
-1931.920044 -123.091003 -308.535004 
-1899.609985 -98.917297 -337.553986 
-2045.900024 115.484001 -284.898010 
-2020.359985 147.255005 -295.459991 
-2009.540039 138.072998 -320.164001 
-1964.760010 314.783997 -247.138000 
-1956.619995 342.554993 -218.285004 
-1946.709961 328.809998 -274.989990 
-2025.199951 174.188995 -278.592010 
-2023.530029 158.807999 -282.411987 
-2056.340088 149.494003 -242.356003 
-2062.649902 91.953300 -279.389008 
-2072.239990 100.177002 -259.938995 
-1900.910034 -271.783997 -266.885986 
-1871.829956 -234.768005 -311.597992 
-1913.150024 -254.897003 -274.847992 
-2010.410034 -303.980011 -172.623001 
-1985.219971 -312.441010 -164.414001 
-2020.359985 -309.152008 -140.253006 
-2098.479980 20.040701 -235.858994 
-2117.189941 27.811899 -224.345001 
-2098.750000 44.392502 -237.759995 
-2096.030029 73.001801 -243.563004 
-2081.370117 58.523998 -255.238998 
-2095.389893 108.953003 -189.285995 
-2100.889893 80.014297 -194.110001 
-2114.139893 86.691002 -183.153000 
-2078.040039 129.727005 -210.477997 
-2091.969971 140.225998 -192.479996 
-2067.250000 109.797997 -230.738998 
-2083.149902 91.576202 -241.520996 
-2094.979980 80.653198 -213.513000 
-2063.419922 125.153000 -225.677994 
-2143.199951 -3.217510 -174.585007 
-2145.280029 13.826600 -165.283005 
-2149.580078 22.603399 -174.548004 
-2142.520020 9.015440 -183.817001 
-2141.100098 31.596100 -183.244003 
-2147.419922 -52.286598 -144.654007 
-2144.479980 -46.041000 -167.983994 
-2154.360107 -65.765297 -152.457001 
-2139.580078 -33.555698 -138.852005 
-2133.770020 -8.232370 -186.128998 
-2132.459961 58.228100 -180.843994 
-2126.090088 38.132599 -194.949005 
-2141.530029 -92.458199 -184.003998 
-2152.879883 -82.705399 -169.925003 
-2145.120117 -77.033699 -181.824005 
-2142.300049 -161.820007 -140.332993 
-2146.659912 -131.322006 -152.975998 
-2140.729980 -143.556000 -164.369995 
-2154.669922 -85.619698 -153.067001 
-2124.379883 -125.750999 -182.869003 
-2118.780029 -157.604004 -173.639008 
-2148.139893 -218.828995 -112.194000 
-2148.439941 -222.501999 -82.181602 
-2143.030029 -189.634995 -115.293999 
-2143.260010 -170.330002 -110.990997 
-2148.590088 -176.966995 -82.996101 
-2149.870117 -154.841003 -108.283997 
-2141.979980 -267.851990 -88.846298 
-2144.989990 -272.494995 -70.400703 
-2150.679932 -245.587997 -100.998001 
-2137.020020 -266.865997 -107.441002 
-2115.919922 -292.483002 -74.665901 
-2138.750000 -235.994003 -133.037003 
-2128.479980 -264.036987 -122.870003 
-2115.699951 -264.390991 -137.520996 
-2102.189941 -293.785004 -109.526001 
-2109.510010 -236.541000 -160.279999 
-2093.040039 -268.908997 -153.524994 
-2064.750000 -275.867004 -169.108002 
-2068.219971 -298.220001 -141.742004 
-2126.330078 -220.595001 -149.703995 
-2104.530029 -220.363007 -165.669998 
-2128.580078 -200.910004 -150.018005 
-2137.050049 -218.783997 -138.162003 
-2144.669922 -214.417999 -131.449005 
-2131.850098 -18.475100 -192.162003 
-2137.909912 -36.039200 -191.988998 
-1990.949951 -313.981995 -103.051003 
-2028.349976 -308.661987 -101.747002 
-2035.010010 -307.696991 -120.105003 
-1992.030029 -313.670013 -81.580597 
-2043.030029 -306.737000 -93.482201 
-2050.489990 -306.432007 -78.695396 
-1995.849976 -313.575012 -52.282902 
-2053.290039 -305.959015 -58.606800 
-2055.479980 -304.248993 -36.933201 
-1475.829956 962.077026 -578.114990 
-1422.359985 998.236023 -605.325012 
-1530.449951 931.343994 -550.219971 
-1631.489990 754.411987 -484.171997 
-1615.209961 763.458984 -489.473999 
-1621.680054 732.476990 -488.042999 
-1622.020020 668.140991 -487.226990 
-1620.209961 699.810974 -489.182007 
-1637.290039 696.905029 -489.082001 
-1645.010010 639.181030 -488.351990 
-1628.410034 633.489014 -484.152008 
-1635.890015 590.674988 -478.623993 
-1679.140015 501.442993 -462.316986 
-1653.359985 546.388977 -471.242004 
-1670.910034 561.330994 -478.320007 
-1721.060059 452.303009 -443.752991 
-1755.189941 430.057007 -424.221008 
-1813.680054 412.252014 -389.061005 
-1897.040039 365.403992 -296.662994 
-1920.550049 381.492004 -289.795990 
-1874.709961 397.033997 -343.052002 
-1823.760010 429.052002 -394.247009 
-1614.489990 795.760010 -501.575012 
-2149.300049 -68.118301 -8.316610 
-2152.979980 -90.006302 -30.325100 
-2144.560059 -193.268005 -58.368500 
-2149.709961 -180.916000 -54.975800 
-1998.229980 -312.796997 1.453450 
-2050.689941 -304.976013 -13.638500 
-1966.489990 276.536987 -270.190002 
-1972.920044 292.987000 -228.522995 
-1983.010010 271.950989 -228.817993 
-1986.829956 301.960999 -200.733994 
-2016.380005 261.019989 -172.880005 
-2034.880005 245.733002 -139.858002 
-2019.010010 267.404999 -167.516006 
-2006.790039 301.048004 -152.039993 
-2010.569946 280.975006 -167.455002 
-2003.180054 236.421005 -225.973999 
-2016.969971 249.072006 -201.238998 
-2051.659912 224.029999 -165.542007 
-2025.939941 255.128006 -181.007004 
-2050.050049 235.029007 -106.508003 
-2061.139893 211.563004 -87.311699 
-2050.120117 232.686005 -118.303001 
-2037.079956 255.677994 -130.785004 
-2096.409912 151.684998 -152.358994 
-2083.050049 169.354996 -175.108994 
-2070.129883 195.156998 -158.199997 
-2058.560059 187.834000 -203.223007 
-2066.989990 211.341003 -141.408997 
-2084.850098 175.225006 -99.822403 
-2076.560059 170.684998 -106.521004 
-2100.879883 155.847000 -98.807899 
-2075.929932 178.938995 -81.909798 
-2047.229980 222.306000 -119.414001 
-2068.949951 187.688004 -116.969002 
-2048.360107 210.977005 -120.888000 
-2058.120117 211.074997 -130.684998 
-2086.649902 163.886993 -119.356003 
-2100.419922 139.701004 -134.912003 
-2120.189941 121.005997 -139.320999 
-2109.030029 140.531006 -109.634003 
-2142.709961 14.324300 -146.050003 
-2147.699951 47.609600 -148.813004 
-2139.189941 89.728500 -140.153000 
-2130.379883 88.641296 -167.195007 
-2116.830078 144.891006 -95.397400 
-1999.670044 332.851013 -139.322006 
-2106.050049 -298.385010 -14.010200 
-2090.780029 -303.470001 10.497900 
-2129.139893 -295.161987 -4.593780 
-2148.260010 -46.114300 18.033899 
-2155.090088 -58.652000 24.834200 
-2150.239990 -22.681999 49.989101 
-2144.669922 -39.955101 12.771000 
-2146.250000 -20.477699 17.540300 
-2149.129883 15.120100 -43.022400 
-2148.429932 30.867800 5.056200 
-2148.590088 35.963902 -5.689130 
-2146.530029 52.437199 -19.242901 
-2150.110107 51.530399 -4.389090 
-2147.219971 50.282902 -31.247000 
-2153.879883 -170.291000 -42.221802 
-2147.520020 -180.123001 -25.419500 
-2148.229980 -165.766006 -2.314130 
-2145.409912 -178.709000 -2.244430 
-2060.879883 258.010010 81.110901 
-2055.370117 290.846985 98.573700 
-2074.340088 220.843994 61.945301 
-2042.510010 236.735992 -149.751999 
-2062.409912 197.904999 -105.875000 
-2087.870117 178.977005 -93.194603 
-2099.989990 155.091003 -82.584503 
-2063.379883 239.397995 -27.922600 
-2047.689941 285.945007 -45.439098 
-2127.199951 6.422210 -207.623993 
-2123.370117 32.587399 -211.128998 
-2114.469971 57.241901 -206.302002 
-2045.589966 135.123001 -257.118988 
88.820900 1475.030029 729.265015 
103.995003 1450.119995 716.353027 
113.287003 1461.910034 711.578003 
237.987000 1500.680054 324.816010 
238.595993 1513.640015 333.815002 
228.774002 1511.550049 342.708008 
239.470001 1536.510010 348.971008 
243.841003 1524.640015 326.630005 
251.929001 1546.640015 397.169006 
252.233994 1562.589966 386.003998 
268.528015 1574.819946 425.838989 
256.295013 1574.310059 378.045013 
277.885986 1587.020020 472.385986 
274.889008 1563.339966 473.638000 
279.477997 1592.510010 523.700012 
279.868011 1615.650024 483.171997 
266.677002 1589.359985 571.616028 
265.684998 1563.250000 568.304016 
247.697006 1581.369995 617.002991 
263.281006 1612.280029 585.822021 
217.203995 1568.380005 657.218018 
215.274994 1544.099976 653.898987 
183.384003 1553.319946 690.770020 
218.330994 1591.500000 658.013000 
149.981003 1539.459961 711.275024 
151.080002 1517.719971 709.018982 
117.170998 1524.430054 728.340027 
146.259003 1558.040039 716.403992 
96.765503 1515.770020 737.536987 
108.405998 1501.339966 729.146973 
77.770401 1506.670044 744.882996 
79.181602 1525.949951 748.320007 
63.097301 1496.189941 749.818970 
80.855499 1486.630005 738.625977 
53.212898 1477.900024 756.744995 
46.417500 1506.670044 765.846008 
264.321991 1532.130005 317.678986 
257.181000 1550.859985 337.618011 
-21.167700 1549.069946 850.656006 
-8.371220 1534.699951 834.580017 
12.592900 1558.599976 831.929993 
49.439602 1578.180054 820.195984 
35.148300 1593.300049 833.866028 
64.745697 1627.930054 830.421021 
26.789900 1601.810059 846.851013 
133.279007 1706.369995 793.947998 
163.608994 1699.810059 778.758972 
161.671005 1734.050049 770.953003 
184.690002 1764.569946 748.716003 
158.998001 1771.619995 766.504028 
107.510002 1649.510010 812.038025 
99.802498 1664.170044 816.422974 
102.147003 1695.680054 812.697021 
335.175995 951.325989 346.399994 
331.315002 985.814026 352.144989 
319.167999 967.453979 353.471008 
347.759003 922.849976 336.630005 
362.149994 938.132019 341.924988 
358.277008 901.489990 320.324005 
338.389008 905.599976 327.795990 
58.835400 1521.890015 763.624023 
42.465801 1515.410034 778.893982 
111.454002 1550.900024 748.039978 
149.742004 1567.069946 725.421021 
154.218002 1577.599976 735.424988 
187.977005 1585.650024 698.164001 
290.748993 1627.380005 472.907013 
287.786011 1632.160034 526.679016 
308.390015 1636.670044 469.489014 
285.739014 1611.569946 420.941986 
288.444000 1589.619995 372.075012 
271.256989 1581.469971 376.132996 
94.438202 1486.750000 729.609009 
107.282997 1492.300049 721.791016 
123.709000 1499.650024 715.664978 
108.706001 1482.579956 715.627991 
149.294006 1508.900024 700.094971 
175.233002 1522.069946 678.901978 
142.764008 1505.709961 685.822998 
206.386993 1535.609985 644.161987 
234.207001 1546.810059 605.815002 
191.770996 1531.400024 634.383972 
252.850006 1553.000000 562.880005 
261.842010 1555.430054 519.763000 
231.815002 1546.900024 559.044006 
257.942993 1553.300049 472.337006 
247.639999 1547.209961 426.131989 
235.042007 1546.290039 469.605011 
231.934006 1534.209961 389.311005 
220.531998 1521.609985 361.285004 
215.740005 1531.209961 390.204010 
214.951996 1510.130005 346.438995 
227.908997 1485.479980 332.593994 
212.466995 1485.420044 343.487000 
217.037003 1472.939941 346.056000 
197.350006 1481.540039 350.351013 
208.820999 1496.770020 340.835999 
200.406006 1506.709961 350.496002 
202.731003 1491.170044 362.882996 
212.367004 1490.050049 389.769989 
209.487000 1468.810059 389.311005 
220.197998 1486.130005 424.731995 
216.070007 1512.800049 397.166992 
223.886002 1524.579956 425.455994 
214.686996 1530.420044 599.739990 
228.578003 1532.040039 559.528015 
187.479004 1514.010010 636.273010 
157.582001 1492.250000 667.836975 
135.151993 1475.530029 686.687012 
151.610001 1443.260010 682.914001 
175.832001 1422.170044 653.098999 
173.595001 1436.050049 658.135986 
201.289001 1405.790039 614.614014 
172.677002 1403.180054 650.505005 
216.828003 1400.150024 571.653015 
218.281998 1412.680054 572.034973 
153.134995 1454.800049 676.041992 
139.050995 1466.199951 692.148010 
129.848007 1462.180054 699.150024 
180.783005 1487.459961 636.489014 
169.712997 1442.969971 636.648987 
176.102997 1437.880005 645.148987 
196.324997 1425.280029 606.752991 
213.070999 1420.709961 566.187988 
204.764999 1427.439941 556.768005 
222.231003 1422.079956 522.552002 
215.669998 1456.239990 424.044006 
206.337997 1458.280029 393.039001 
