110.155998 -144.531006 -847.486023 
108.842003 -142.968994 -846.031006 
110.155998 -144.667007 -847.593994 
108.755997 -147.656006 -846.031006 
108.594002 -148.832001 -847.593994 
109.101997 -147.656006 -847.593994 
107.355003 -150.781006 -847.593994 
108.221001 -149.218994 -846.031006 
107.030998 -151.229996 -847.593994 
106.027000 -152.343994 -846.031006 
106.200996 -152.343994 -847.593994 
105.469002 -155.468994 -846.807983 
105.240997 -155.468994 -846.031006 
105.510002 -153.906006 -846.031006 
104.495003 -157.031006 -846.031006 
104.271004 -158.593994 -846.031006 
103.082001 -161.718994 -846.031006 
103.905998 -160.156006 -847.489990 
102.344002 -164.843994 -846.669006 
102.480003 -164.843994 -846.031006 
101.588997 -166.406006 -846.031006 
80.633003 -63.280998 -864.781006 
-30.299999 -63.280998 -864.781006 
-32.030998 -63.280998 -865.791992 
-34.480000 -61.719002 -866.343994 
87.417000 -60.155998 -866.343994 
87.373001 -60.155998 -864.781006 
36.719002 116.663002 -858.531006 
38.280998 116.405998 -858.315979 
35.155998 116.405998 -858.486023 
33.594002 115.139999 -858.531006 
36.719002 116.405998 -857.681030 
38.280998 114.844002 -857.601013 
52.344002 114.844002 -857.744995 
53.905998 115.254997 -856.968994 
53.905998 115.490997 -858.531006 
52.344002 114.996002 -858.531006 
57.030998 115.622002 -856.968994 
58.594002 115.861000 -858.531006 
58.594002 115.898003 -856.968994 
61.436001 114.844002 -858.531006 
60.155998 115.314003 -856.968994 
61.775002 114.844002 -856.968994 
33.594002 114.844002 -858.280029 
33.594002 113.582001 -858.531006 
33.761002 113.280998 -858.531006 
35.155998 113.280998 -857.961975 
36.719002 113.280998 -857.929016 
36.719002 114.844002 -857.432007 
35.155998 114.844002 -857.979980 
39.844002 114.844002 -857.528992 
38.280998 113.280998 -857.885010 
39.844002 113.280998 -857.890015 
42.969002 114.876999 -858.531006 
51.914001 113.280998 -856.968994 
61.719002 113.571999 -858.531006 
61.719002 114.844002 -857.335022 
62.355999 113.280998 -856.968994 
33.594002 111.719002 -858.031006 
41.266998 113.280998 -858.531006 
42.969002 113.280998 -858.455017 
46.094002 111.719002 -858.463989 
47.655998 111.719002 -858.491028 
49.219002 112.123001 -858.531006 
47.655998 111.780998 -858.531006 
50.780998 111.719002 -857.685974 
50.780998 112.920998 -858.531006 
51.209000 111.719002 -856.968994 
61.780998 113.280998 -858.531006 
26.599001 110.155998 -858.531006 
27.344000 110.245003 -858.531006 
28.906000 110.165001 -858.531006 
30.469000 110.695999 -858.531006 
32.030998 110.155998 -857.465027 
32.030998 111.146004 -858.531006 
33.594002 110.155998 -857.242004 
35.155998 111.719002 -858.091003 
36.719002 111.719002 -857.961975 
35.155998 110.155998 -857.218994 
38.280998 111.719002 -857.784973 
39.844002 111.719002 -857.900024 
41.405998 111.719002 -857.827026 
39.844002 110.155998 -857.711975 
42.969002 110.155998 -857.158020 
42.969002 111.719002 -857.364014 
44.530998 110.155998 -857.729980 
44.530998 111.719002 -858.359985 
47.655998 110.155998 -857.617004 
49.219002 111.719002 -858.120972 
65.082001 110.155998 -858.531006 
64.844002 110.155998 -857.062012 
17.969000 108.594002 -857.924988 
16.406000 108.917999 -858.531006 
19.531000 108.903000 -858.531006 
21.094000 108.594002 -858.083008 
21.094000 108.681000 -858.531006 
22.656000 108.594002 -857.122009 
27.344000 110.155998 -858.210022 
30.469000 110.155998 -857.840027 
36.719002 109.669998 -856.968994 
38.280998 110.155998 -857.260986 
36.719002 110.155998 -857.247009 
38.280998 109.446999 -856.968994 
39.844002 108.929001 -856.968994 
41.405998 110.155998 -857.517029 
42.969002 109.358002 -856.968994 
46.094002 110.155998 -857.156982 
44.530998 108.594002 -857.216003 
47.655998 109.064003 -856.968994 
64.814003 110.155998 -856.968994 
64.844002 110.080002 -856.968994 
7.031000 107.060997 -858.531006 
8.594000 107.494003 -858.531006 
10.156000 107.865997 -858.531006 
11.719000 107.831001 -858.531006 
13.281000 107.100998 -856.968994 
16.406000 108.594002 -857.971008 
14.844000 107.880997 -858.531006 
17.969000 108.235001 -856.968994 
19.531000 108.594002 -857.432983 
19.531000 108.469002 -856.968994 
21.094000 108.352997 -856.968994 
22.656000 108.544998 -856.968994 
23.025999 108.594002 -856.968994 
46.094002 108.594002 -857.150024 
46.576000 108.594002 -856.968994 
66.405998 107.421997 -856.968994 
65.540001 108.594002 -858.531006 
66.405998 107.155998 -858.531006 
2.344000 105.469002 -858.387024 
3.906000 106.358002 -858.531006 
5.197000 105.469002 -856.968994 
5.469000 105.547997 -856.968994 
5.469000 106.825996 -858.531006 
7.031000 105.647003 -856.968994 
8.594000 107.030998 -857.927002 
10.156000 107.030998 -857.466003 
103.905998 83.594002 -865.611023 
103.905998 85.155998 -865.741028 
0.469000 103.905998 -858.531006 
0.781000 104.294998 -858.531006 
3.906000 104.699997 -856.968994 
3.906000 105.469002 -857.395996 
0.781000 103.905998 -858.284973 
2.344000 103.905998 -857.117004 
2.768000 103.905998 -856.968994 
102.344002 83.594002 -865.565979 
99.219002 85.155998 -865.106018 
100.780998 83.594002 -865.190979 
97.655998 85.155998 -865.044006 
97.655998 84.314003 -864.781006 
-17.969000 84.685997 -864.781006 
-17.969000 85.155998 -865.075989 
-19.531000 85.155998 -865.609009 
110.460999 85.155998 -866.343994 
78.189003 102.344002 -856.968994 
-2.344000 101.899002 -858.531006 
-0.781000 102.344002 -858.221008 
0.781000 101.417999 -856.968994 
0.781000 102.344002 -857.406982 
-0.781000 100.780998 -857.409973 
110.155998 86.719002 -865.984009 
110.155998 85.155998 -866.169006 
82.030998 101.370003 -856.968994 
-3.906000 99.336998 -858.531006 
-2.344000 99.219002 -857.351990 
-2.344000 100.780998 -857.711975 
-0.781000 99.219002 -857.059021 
80.443001 100.780998 -858.531006 
82.030998 99.852997 -858.531006 
82.030998 100.780998 -857.818970 
83.594002 100.780998 -857.018005 
83.594002 99.219002 -857.809998 
-0.529000 99.219002 -856.968994 
83.594002 98.166000 -858.531006 
84.351997 97.655998 -858.531006 
85.726997 99.219002 -856.968994 
85.155998 97.655998 -858.023010 
85.155998 99.219002 -857.239014 
-2.344000 97.567001 -856.968994 
-3.906000 97.655998 -857.940002 
85.155998 96.962997 -858.531006 
86.719002 96.400002 -858.531006 
86.719002 97.655998 -857.424988 
-6.139000 94.530998 -856.968994 
-5.029000 96.094002 -858.531006 
-5.469000 95.369003 -856.968994 
-4.351000 96.094002 -856.968994 
-5.469000 95.709000 -858.531006 
88.280998 96.094002 -857.192993 
88.394997 96.094002 -856.968994 
-7.031000 94.063004 -858.531006 
-7.429000 92.969002 -856.968994 
88.280998 94.292000 -858.531006 
-8.594000 91.405998 -857.052979 
-7.865000 92.969002 -858.531006 
88.180000 92.969002 -858.531006 
88.280998 92.969002 -858.393982 
89.532997 92.969002 -856.968994 
88.280998 92.279999 -858.531006 
89.844002 91.405998 -857.065002 
88.724998 91.405998 -858.531006 
89.844002 91.524002 -856.968994 
89.864998 91.405998 -856.968994 
-10.156000 89.844002 -857.802979 
-9.649000 91.405998 -858.531006 
90.561996 89.844002 -856.968994 
-11.767000 88.280998 -858.531006 
-11.414000 88.280998 -856.968994 
90.086998 88.280998 -858.531006 
89.844002 89.844002 -858.278992 
-13.281000 87.160004 -858.531006 
-11.719000 88.280998 -858.361023 
-13.281000 86.719002 -857.848022 
-14.031000 85.155998 -858.531006 
90.459000 85.155998 -858.531006 
90.403999 86.719002 -858.531006 
90.796997 86.719002 -856.968994 
-15.111000 83.594002 -858.531006 
-14.844000 83.594002 -857.687012 
-14.844000 83.835999 -858.531006 
-13.281000 85.155998 -857.422974 
-13.281000 84.574997 -856.968994 
90.953003 83.594002 -856.968994 
90.901001 85.155998 -856.968994 
-14.844000 82.030998 -857.237000 
-14.676000 82.030998 -856.968994 
-16.370001 82.030998 -858.531006 
-16.406000 79.127998 -858.531006 
89.844002 80.116997 -858.531006 
-16.511999 78.905998 -858.531006 
-16.406000 78.905998 -858.159973 
-16.113001 78.905998 -856.968994 
88.719002 78.905998 -856.968994 
-18.382999 75.780998 -858.531006 
-16.406000 77.344002 -857.554993 
86.719002 76.111000 -858.531006 
85.903999 75.780998 -856.968994 
87.281998 77.344002 -856.968994 
-19.531000 74.219002 -858.254028 
-17.969000 75.780998 -858.208008 
-19.531000 74.626999 -858.531006 
-17.969000 74.762001 -856.968994 
85.155998 74.219002 -858.281006 
85.155998 74.848999 -856.968994 
86.501999 75.780998 -858.531006 
-20.600000 72.655998 -858.531006 
-19.531000 72.655998 -857.081970 
83.594002 72.885002 -856.968994 
85.155998 74.141998 -858.531006 
-19.396999 72.655998 -856.968994 
82.820000 71.094002 -858.531006 
83.594002 72.655998 -857.306030 
83.594002 71.898003 -858.531006 
-21.094000 71.094002 -858.427979 
82.030998 71.094002 -857.499023 
-21.622999 67.969002 -856.968994 
-21.094000 69.530998 -857.770020 
80.469002 69.530998 -857.419983 
81.550003 69.530998 -858.531006 
-23.485001 66.405998 -858.531006 
-22.656000 67.969002 -857.773987 
77.344002 66.907997 -856.968994 
78.905998 67.969002 -857.593994 
77.344002 66.405998 -857.280029 
-22.837999 66.405998 -856.968994 
78.905998 66.405998 -857.776001 
-25.781000 64.202003 -858.531006 
-25.781000 63.280998 -857.372009 
-24.219000 64.844002 -857.515015 
75.780998 64.262001 -856.968994 
75.780998 64.844002 -857.215027 
77.344002 64.844002 -858.286011 
-27.344000 62.546001 -858.531006 
-27.344000 61.719002 -857.348999 
-26.747000 63.280998 -858.531006 
-25.781000 62.855000 -856.968994 
77.344002 63.280998 -858.096008 
-27.344000 61.457001 -856.968994 
77.344002 61.719002 -857.862976 
77.344002 60.155998 -857.317017 
-28.906000 60.155998 -857.129028 
-30.058001 58.594002 -856.968994 
-29.434999 60.155998 -858.531006 
-30.469000 58.935001 -858.531006 
76.742996 60.155998 -856.968994 
78.905998 59.808998 -858.531006 
78.905998 58.594002 -857.640015 
-30.469000 58.594002 -857.763977 
79.899002 58.594002 -858.531006 
82.030998 57.030998 -858.312988 
80.469002 57.030998 -857.804016 
80.469002 57.993999 -858.531006 
82.467003 57.030998 -858.531006 
-32.030998 56.091000 -856.968994 
-32.182999 57.030998 -858.531006 
-32.030998 57.030998 -857.932007 
80.202003 55.469002 -856.968994 
82.030998 55.469002 -857.210999 
84.508003 55.469002 -858.531006 
-33.594002 53.905998 -857.291016 
-33.594002 54.472000 -858.531006 
-33.463001 53.905998 -856.968994 
80.469002 55.469002 -857.283997 
82.030998 55.291000 -856.968994 
80.469002 55.292000 -856.968994 
83.594002 54.640999 -856.968994 
83.594002 55.469002 -858.013000 
85.612000 53.905998 -856.968994 
86.719002 54.208000 -858.531006 
85.155998 55.189999 -858.531006 
86.719002 53.905998 -857.963989 
87.498001 53.905998 -858.531006 
86.719002 53.167999 -856.968994 
89.844002 52.556999 -858.531006 
-35.462002 50.780998 -858.531006 
-35.155998 50.780998 -857.138000 
-34.471001 52.344002 -856.968994 
88.280998 52.035999 -856.968994 
89.844002 52.344002 -858.291992 
88.280998 52.344002 -857.234985 
90.140999 52.344002 -858.531006 
89.844002 51.095001 -856.968994 
91.405998 51.486000 -858.531006 
91.405998 50.780998 -857.752991 
-36.104000 49.219002 -856.968994 
91.405998 49.219002 -857.202026 
92.969002 49.219002 -857.952026 
-36.597000 47.655998 -858.531006 
-36.222000 49.219002 -858.531006 
91.405998 48.771000 -856.968994 
92.969002 47.655998 -857.054993 
93.632004 49.219002 -858.531006 
94.530998 47.825001 -858.531006 
-36.719002 47.277000 -858.531006 
-36.719002 46.094002 -857.088989 
-36.668999 46.094002 -856.968994 
92.969002 47.039001 -856.968994 
94.530998 46.094002 -857.690002 
94.530998 47.655998 -858.419983 
96.094002 46.094002 -858.479004 
96.094002 46.213001 -858.531006 
94.752998 47.655998 -858.531006 
-36.719002 45.960999 -856.968994 
93.744003 44.530998 -856.968994 
96.140999 46.094002 -858.531006 
-38.280998 43.254002 -858.531006 
-37.580002 44.530998 -858.531006 
-37.244999 42.969002 -856.968994 
-36.969002 44.530998 -856.968994 
92.969002 42.969002 -857.193970 
94.530998 44.530998 -857.538025 
96.094002 43.292000 -858.531006 
94.530998 42.969002 -857.901978 
95.935997 42.969002 -858.531006 
96.094002 44.530998 -858.237976 
-38.645000 41.405998 -858.531006 
-38.280998 41.405998 -857.840027 
-38.280998 42.969002 -858.270996 
92.969002 41.405998 -857.200012 
92.695000 42.969002 -856.968994 
-38.049999 39.844002 -856.968994 
91.405998 39.965000 -856.968994 
91.405998 39.844002 -857.028992 
-38.280998 39.844002 -857.440979 
-38.737000 38.280998 -856.968994 
-38.280998 39.084999 -856.968994 
89.977997 38.280998 -856.968994 
92.969002 39.844002 -857.804993 
-39.844002 37.653999 -858.531006 
-39.494999 36.719002 -856.968994 
91.258003 38.280998 -858.531006 
-39.844002 36.719002 -857.469971 
88.280998 35.368000 -856.968994 
88.280998 35.155998 -857.101990 
88.953003 36.719002 -856.968994 
90.278999 36.719002 -858.531006 
89.844002 36.719002 -857.945007 
-39.844002 34.351002 -856.968994 
-41.266998 33.594002 -858.531006 
-39.917000 35.155998 -856.968994 
-39.844002 33.594002 -857.054016 
88.120003 35.155998 -856.968994 
87.172997 33.594002 -856.968994 
88.280998 33.594002 -858.286011 
-39.844002 32.030998 -857.156006 
-39.268002 30.469000 -856.968994 
86.719002 32.030998 -857.000977 
86.719002 30.469000 -857.280029 
87.987000 32.030998 -858.531006 
-41.939999 28.906000 -858.531006 
-41.405998 29.641001 -858.531006 
-40.356998 28.906000 -856.968994 
-41.405998 28.906000 -858.031982 
-39.844002 30.469000 -857.432983 
-39.844002 29.674000 -856.968994 
86.254997 28.906000 -856.968994 
86.719002 28.906000 -857.583984 
87.552002 30.469000 -858.531006 
-42.969002 27.344000 -858.482971 
-42.969002 27.431000 -858.531006 
87.279999 28.906000 -858.531006 
-41.405998 27.344000 -857.283020 
-41.405998 26.576000 -856.968994 
-41.161999 27.344000 -856.968994 
86.789001 27.344000 -858.531006 
86.719002 25.781000 -857.219971 
87.132004 25.781000 -858.531006 
86.719002 27.344000 -858.421997 
-42.969002 25.781000 -858.208984 
86.601997 25.781000 -856.968994 
86.719002 24.219000 -857.416016 
-42.969002 24.219000 -857.895020 
-28.906000 -97.655998 -838.997986 
86.719002 22.656000 -857.132019 
86.538002 24.219000 -856.968994 
86.948997 22.656000 -858.531006 
52.344002 -94.530998 -839.580994 
-24.219000 -95.987000 -838.218994 
-42.969002 22.656000 -857.330017 
-42.969002 22.084999 -856.968994 
86.672997 22.656000 -856.968994 
86.719002 21.549999 -856.968994 
-24.422001 -96.094002 -838.218994 
86.928001 21.094000 -858.531006 
-25.781000 -96.094002 -838.919983 
-27.344000 -95.825996 -839.781006 
52.491001 -94.530998 -839.781006 
86.719002 19.531000 -857.914978 
86.531998 19.531000 -856.968994 
86.341003 17.969000 -856.968994 
86.809998 19.531000 -858.531006 
86.719002 17.969000 -858.244995 
51.293999 -92.969002 -838.218994 
86.719002 16.406000 -857.245972 
-19.346001 -92.969002 -838.218994 
87.014000 16.406000 -858.531006 
-21.506001 -92.969002 -839.781006 
-22.656000 -94.530998 -838.796021 
-24.219000 -94.530998 -839.611023 
-38.280998 14.558000 -856.968994 
-38.280998 13.281000 -857.757996 
87.700996 14.844000 -858.531006 
87.167000 14.844000 -856.968994 
-36.719002 13.281000 -857.028015 
-35.155998 12.445000 -856.968994 
88.280998 12.064000 -856.968994 
87.924004 13.281000 -858.531006 
88.280998 12.673000 -858.531006 
88.918999 11.719000 -858.531006 
52.344002 -92.969002 -839.383972 
-19.531000 -92.969002 -838.379028 
-36.719002 11.719000 -858.056030 
-35.155998 10.156000 -857.794006 
-33.594002 10.934000 -856.968994 
-35.155998 11.719000 -857.338013 
-33.594002 10.156000 -857.168030 
89.267998 10.156000 -856.968994 
-21.094000 -92.771004 -839.781006 
-36.428001 10.156000 -858.531006 
-35.155998 8.594000 -858.098999 
89.592003 10.156000 -858.531006 
89.844002 9.790000 -858.531006 
-33.594002 7.300000 -858.531006 
-33.594002 8.594000 -857.846008 
-32.030998 7.031000 -857.135010 
90.958000 7.031000 -856.968994 
90.051003 8.594000 -856.968994 
91.405998 7.031000 -857.908997 
-32.030998 5.469000 -857.445984 
-33.455002 5.469000 -858.531006 
-31.332001 5.469000 -856.968994 
-31.461000 7.031000 -856.968994 
91.778999 7.031000 -858.531006 
-21.094000 -92.969002 -839.583008 
-32.030998 3.906000 -857.604004 
92.969002 5.394000 -858.531006 
92.913002 5.469000 -858.531006 
92.359001 3.906000 -856.968994 
94.209000 3.906000 -858.531006 
52.344002 -91.405998 -839.387024 
-31.264999 3.906000 -856.968994 
92.969002 3.906000 -857.585999 
94.530998 3.544000 -858.531006 
94.530998 2.344000 -857.900024 
102.344002 2.344000 -858.469971 
102.452003 2.344000 -858.531006 
51.285999 -91.405998 -838.218994 
-19.531000 -91.405998 -838.841003 
-32.030998 2.344000 -857.838989 
-31.139000 2.344000 -856.968994 
92.942001 0.781000 -856.968994 
92.942001 2.344000 -856.968994 
96.094002 2.344000 -858.242004 
96.094002 0.781000 -857.958008 
97.655998 0.781000 -858.270996 
103.905998 0.970000 -858.531006 
102.344002 0.781000 -858.054993 
105.469002 0.866000 -858.531006 
52.344002 -89.844002 -839.708984 
-17.750999 -89.844002 -839.781006 
-17.509001 -88.280998 -839.781006 
52.344002 -88.280998 -839.732971 
-30.774000 0.781000 -856.968994 
92.969002 0.617000 -856.968994 
94.530998 0.781000 -857.687988 
96.094002 -0.781000 -857.690979 
94.530998 -0.781000 -857.471985 
98.788002 0.781000 -858.531006 
99.219002 -0.781000 -857.827026 
101.064003 0.781000 -858.531006 
100.780998 -0.781000 -857.953003 
103.905998 0.781000 -858.395020 
105.469002 0.781000 -858.456970 
105.822998 0.781000 -858.531006 
94.530998 -2.344000 -857.015991 
94.445999 -2.344000 -856.968994 
93.431000 -0.781000 -856.968994 
97.655998 -2.344000 -857.950989 
97.655998 -0.781000 -857.622986 
100.780998 -2.344000 -857.669006 
102.344002 -2.344000 -857.866028 
102.344002 -0.781000 -858.067993 
105.469002 -0.781000 -857.916992 
103.905998 -0.781000 -858.010010 
107.030998 -2.344000 -858.122986 
107.030998 -0.948000 -858.531006 
108.594002 -2.344000 -858.340027 
108.925003 -2.344000 -858.531006 
96.094002 -3.906000 -857.979980 
96.094002 -2.344000 -857.528992 
100.780998 -3.906000 -857.911011 
99.219002 -3.906000 -857.992004 
99.219002 -2.344000 -857.849976 
103.905998 -2.344000 -857.304016 
105.469002 -2.344000 -857.791016 
94.530998 -3.906000 -857.278992 
93.695000 -3.906000 -856.968994 
96.094002 -5.469000 -857.987976 
94.530998 -5.469000 -857.710022 
97.655998 -5.469000 -858.315002 
97.655998 -3.906000 -857.947998 
99.219002 -5.469000 -858.411011 
100.780998 -5.469000 -858.473022 
102.344002 -3.906000 -857.859985 
103.905998 -3.906000 -857.877014 
105.469002 -3.906000 -858.153015 
103.905998 -5.469000 -858.453003 
105.469002 -5.390000 -858.531006 
108.503998 -3.906000 -858.531006 
107.030998 -3.906000 -858.169006 
96.094002 -7.031000 -857.775024 
97.655998 -7.031000 -858.034973 
100.780998 -5.597000 -858.531006 
102.344002 -6.016000 -858.531006 
102.344002 -5.469000 -858.193970 
103.905998 -5.620000 -858.531006 
-14.247000 -86.719002 -838.218994 
-16.406000 -88.280998 -838.536011 
-15.725000 -88.280998 -838.218994 
96.094002 -8.594000 -857.293030 
98.780998 -7.031000 -858.531006 
-16.406000 -86.719002 -839.523010 
52.344002 -86.719002 -839.689026 
52.344002 -85.155998 -839.510986 
52.428001 -86.719002 -839.781006 
97.655998 -10.156000 -858.317993 
97.655998 -8.594000 -858.192993 
50.780998 -85.155998 -838.375000 
51.122002 -86.719002 -838.218994 
50.780998 -85.674004 -838.218994 
-14.844000 -86.719002 -838.533020 
-14.844000 -85.155998 -839.033020 
52.719002 -83.594002 -839.781006 
50.539001 -85.155998 -838.218994 
96.094002 -10.508000 -856.968994 
96.094002 -10.156000 -857.080017 
97.922997 -10.156000 -858.531006 
50.780998 -84.033997 -838.218994 
-13.281000 -84.595001 -838.218994 
-13.929000 -85.155998 -838.218994 
-15.807000 -85.155998 -839.781006 
52.344002 -83.594002 -839.512024 
-13.281000 -83.594002 -838.994995 
-11.719000 -82.030998 -838.752014 
-14.844000 -83.594002 -839.687012 
97.655998 -13.281000 -857.380981 
96.579002 -11.719000 -856.968994 
97.304001 -13.281000 -856.968994 
98.723999 -13.281000 -858.531006 
97.655998 -11.719000 -858.142029 
52.344002 -82.030998 -839.161987 
-13.281000 -82.030998 -839.692993 
-13.281000 -81.644997 -839.781006 
52.344002 -80.469002 -839.307007 
50.780998 -79.161003 -838.218994 
99.219002 -14.213000 -858.531006 
99.219002 -14.844000 -858.145996 
-38.077999 -16.406000 -856.968994 
-10.156000 -78.905998 -838.979004 
99.219002 -15.869000 -856.968994 
98.252998 -14.844000 -856.968994 
99.540001 -14.844000 -858.531006 
100.780998 -16.406000 -858.046997 
-11.719000 -80.469002 -839.239990 
-11.719000 -79.490997 -839.781006 
-12.846000 -80.469002 -839.781006 
-38.280998 -16.406000 -857.109985 
-38.280998 -17.969000 -857.117981 
101.210999 -16.406000 -858.531006 
102.344002 -17.768000 -858.531006 
52.344002 -77.344002 -839.346985 
-38.382000 -19.531000 -856.968994 
100.780998 -17.927999 -856.968994 
102.344002 -19.531000 -857.497986 
103.261002 -19.531000 -858.531006 
102.344002 -17.969000 -858.341003 
-39.375000 -19.531000 -858.531006 
102.344002 -20.895000 -856.968994 
104.042000 -21.094000 -858.531006 
-38.280998 -22.656000 -857.554993 
-38.280998 -21.094000 -857.591980 
102.472000 -21.094000 -856.968994 
103.905998 -22.656000 -857.802002 
104.167000 -22.656000 -858.531006 
103.905998 -21.094000 -858.151978 
-39.185001 -24.219000 -858.531006 
-38.280998 -24.219000 -857.755005 
-37.866001 -22.656000 -856.968994 
103.905998 -24.219000 -857.914978 
-38.737000 -25.781000 -858.531006 
103.255997 -24.219000 -856.968994 
103.905998 -25.781000 -857.968018 
104.107002 -24.219000 -858.531006 
-38.280998 -25.781000 -857.874023 
-37.855999 -25.781000 -856.968994 
-37.865002 -27.344000 -856.968994 
103.905998 -27.344000 -858.168030 
104.054001 -25.781000 -858.531006 
-38.280998 -27.344000 -857.770996 
103.905998 -27.662001 -858.531006 
102.455002 -28.906000 -856.968994 
-37.494999 -28.906000 -856.968994 
103.255997 -28.906000 -858.531006 
-38.077999 -30.469000 -858.531006 
100.780998 -32.030998 -857.075989 
101.250000 -32.030998 -858.531006 
102.344002 -30.469000 -857.810974 
-36.719002 -32.653999 -856.968994 
-36.719002 -33.594002 -858.120972 
-35.155998 -36.502998 -856.968994 
98.532997 -36.719002 -856.968994 
99.219002 -36.058998 -858.531006 
99.255997 -35.155998 -856.968994 
-35.155998 -36.719002 -857.174011 
-35.405998 -38.280998 -858.531006 
98.901001 -36.719002 -858.531006 
-35.155998 -39.688000 -858.531006 
-35.155998 -38.280998 -858.151978 
98.682999 -38.280998 -858.531006 
98.347000 -39.844002 -856.968994 
-35.122002 -39.844002 -858.531006 
-33.400002 -42.969002 -856.968994 
98.250000 -41.405998 -858.531006 
98.237000 -42.969002 -856.968994 
-33.664001 -44.530998 -856.968994 
-33.594002 -42.969002 -857.263000 
98.228996 -44.530998 -856.968994 
-34.110001 -44.530998 -858.531006 
-33.594002 -45.426998 -858.531006 
-33.594002 -44.712002 -856.968994 
98.612999 -46.094002 -858.531006 
98.375000 -46.094002 -856.968994 
98.102997 -44.530998 -858.531006 
-33.594002 -47.655998 -858.099976 
-33.594002 -47.019001 -858.531006 
-32.787998 -46.094002 -856.968994 
-33.594002 -49.219002 -858.549011 
-32.867001 -47.655998 -856.968994 
-32.030998 -50.780998 -857.309998 
-32.030998 -49.734001 -856.968994 
99.085999 -49.219002 -858.531006 
98.744003 -50.780998 -856.968994 
-30.469000 -52.344002 -857.549011 
-28.497000 -52.344002 -856.968994 
98.405998 -52.344002 -856.968994 
-28.906000 -52.344002 -857.289978 
-27.344000 -53.905998 -857.505005 
-25.537001 -53.905998 -856.968994 
-25.781000 -53.839001 -856.968994 
98.000999 -53.905998 -856.968994 
-27.344000 -55.021000 -858.531006 
-25.781000 -55.469002 -857.958984 
-24.219000 -54.345001 -856.968994 
-25.781000 -53.905998 -857.028015 
-24.219000 -55.469002 -857.786987 
-24.219000 -56.439999 -858.531006 
-23.565001 -57.030998 -858.531006 
-22.656000 -57.030998 -857.960999 
-22.656000 -55.469002 -857.156982 
-21.094000 -55.998001 -856.968994 
-21.094000 -57.030998 -857.645020 
-19.531000 -56.978001 -856.968994 
96.859001 -55.469002 -858.531006 
96.902000 -55.469002 -856.968994 
-19.552999 -58.594002 -856.968994 
92.379997 -58.594002 -858.531006 
91.781998 -58.594002 -856.968994 
94.530998 -57.497002 -856.968994 
96.094002 -57.030998 -856.927979 
96.094002 -57.096001 -858.531006 
-20.771000 -60.155998 -858.531006 
86.943001 -60.155998 -856.968994 
89.844002 -59.266998 -856.968994 
88.280998 -59.897999 -858.531006 
91.405998 -58.714001 -858.531006 
-19.531000 -60.155998 -857.479004 
-18.930000 -60.155998 -856.968994 
-18.671000 -61.719002 -856.968994 
83.594002 -61.063000 -858.531006 
82.803001 -61.719002 -858.531006 
-19.531000 -63.280998 -857.729980 
-18.406000 -63.280998 -856.968994 
-19.531000 -61.719002 -857.721008 
79.406998 -63.280998 -856.968994 
79.735001 -63.280998 -858.531006 
-21.014000 -64.844002 -858.531006 
-20.535000 -63.280998 -858.531006 
75.780998 -64.844002 -857.838989 
78.905998 -64.167999 -858.531006 
-20.035999 -66.405998 -856.968994 
-21.094000 -66.405998 -858.104004 
-19.531000 -64.844002 -857.179016 
71.094002 -65.980003 -856.968994 
72.655998 -66.046997 -858.531006 
74.219002 -64.870003 -856.968994 
74.431999 -64.844002 -856.968994 
74.219002 -65.457001 -858.531006 
-20.534000 -67.969002 -856.968994 
69.530998 -67.969002 -858.088989 
71.094002 -66.405998 -857.492004 
-21.094000 -67.969002 -857.591003 
-21.940001 -67.969002 -858.531006 
68.896004 -67.969002 -856.968994 
69.791000 -67.969002 -858.531006 
-23.587999 -72.655998 -858.531006 
-22.656000 -72.655998 -857.051025 
-22.656000 -71.094002 -857.143982 
66.405998 -72.655998 -857.838013 
66.549004 -72.655998 -858.531006 
-23.363001 -74.219002 -856.968994 
-22.656000 -72.755997 -856.968994 
-24.219000 -74.456001 -858.531006 
-24.219000 -75.780998 -857.093018 
-24.900999 -77.344002 -856.968994 
65.205002 -75.780998 -858.531006 
64.844002 -77.063004 -856.968994 
64.844002 -77.014000 -858.531006 
-26.362000 -78.905998 -858.531006 
-25.781000 -77.422997 -858.531006 
-25.347000 -78.905998 -856.968994 
64.161003 -78.905998 -858.531006 
-25.781000 -78.905998 -857.546021 
-25.781000 -80.321999 -856.968994 
63.901001 -80.469002 -856.968994 
64.296997 -78.905998 -856.968994 
-26.040001 -82.030998 -856.968994 
-25.813000 -80.469002 -856.968994 
64.242996 -82.030998 -858.531006 
64.189003 -80.469002 -858.531006 
65.401001 -83.594002 -858.531006 
64.844002 -83.140999 -858.531006 
52.973000 -78.905998 -839.781006 
-27.344000 -83.594002 -857.098022 
-27.268999 -83.594002 -856.968994 
64.844002 -83.594002 -857.460022 
64.936996 -85.155998 -856.968994 
52.344002 -78.905998 -839.346985 
-11.267000 -78.905998 -839.781006 
53.296001 -75.780998 -839.781006 
65.550003 -86.719002 -856.968994 
66.405998 -86.719002 -857.991028 
66.237000 -88.280998 -856.968994 
66.405998 -88.280998 -857.166992 
67.969002 -90.508003 -858.531006 
67.696999 -89.844002 -858.531006 
67.969002 -91.405998 -858.018005 
68.325996 -91.405998 -858.531006 
69.207001 -92.969002 -858.531006 
68.877998 -94.530998 -856.968994 
69.530998 -94.530998 -857.965027 
71.094002 -96.094002 -858.460999 
71.094002 -96.056000 -858.531006 
71.094002 -97.655998 -858.192993 
70.853996 -99.219002 -856.968994 
71.365997 -97.655998 -858.531006 
71.094002 -99.219002 -857.348999 
71.536003 -99.219002 -858.531006 
70.499001 -100.780998 -856.968994 
71.094002 -100.780998 -857.880005 
70.675003 -102.344002 -858.531006 
70.785004 -103.905998 -856.968994 
70.952003 -103.905998 -858.531006 
71.094002 -104.190002 -858.531006 
71.600998 -105.469002 -858.531006 
71.521004 -107.030998 -856.968994 
71.471001 -105.469002 -856.968994 
71.094002 -108.594002 -856.927002 
70.183998 -111.719002 -858.531006 
70.102997 -111.719002 -856.968994 
70.777000 -114.844002 -858.531006 
70.466003 -113.280998 -856.968994 
70.498001 -114.844002 -856.968994 
71.094002 -117.646004 -858.531006 
71.094002 -116.405998 -858.273010 
71.695999 -119.530998 -858.531006 
72.169998 -121.094002 -856.968994 
72.655998 -122.655998 -857.781006 
72.655998 -124.003998 -856.968994 
73.271004 -124.219002 -858.531006 
74.219002 -125.780998 -858.049011 
73.764000 -125.780998 -856.968994 
72.722000 -124.219002 -856.968994 
74.219002 -125.588997 -858.531006 
74.219002 -126.195999 -856.968994 
108.110001 27.344000 -878.843994 
109.223999 30.469000 -880.406006 
108.594002 30.469000 -879.414001 
108.594002 28.906000 -879.835999 
108.947998 32.030998 -880.406006 
108.827003 33.594002 -880.406006 
108.650002 32.030998 -878.843994 
108.594002 32.236000 -878.843994 
88.280998 -128.817001 -856.968994 
89.844002 -128.526993 -858.531006 
92.969002 -128.462997 -858.531006 
92.969002 -128.113007 -856.968994 
94.530998 -128.173996 -858.531006 
96.094002 -128.453995 -858.531006 
97.655998 -128.639008 -858.531006 
108.594002 33.594002 -879.875977 
108.748001 35.155998 -878.843994 
108.667000 36.719002 -878.843994 
109.427002 39.844002 -880.406006 
108.801003 42.969002 -880.406006 
97.655998 -128.906006 -857.096985 
97.556999 -128.906006 -856.968994 
97.655998 -128.957993 -856.968994 
100.764000 -130.468994 -858.531006 
103.026001 -132.031006 -856.968994 
104.245003 -133.593994 -856.968994 
103.905998 -133.011002 -856.968994 
104.624001 -133.593994 -858.531006 
108.594002 -137.091003 -858.531006 
110.132004 -138.281006 -858.531006 
110.155998 -138.281006 -858.091003 
110.206001 -138.281006 -856.968994 
111.524002 -139.843994 -858.531006 
111.719002 -140.223007 -856.968994 
111.719002 -140.162994 -858.531006 
112.250999 -141.406006 -858.531006 
111.925003 -144.531006 -858.531006 
112.003998 -144.531006 -856.968994 
112.585999 -142.968994 -858.531006 
112.658997 -142.968994 -856.968994 
111.719002 -144.955002 -858.531006 
111.719002 -145.044998 -856.968994 
111.024002 -146.093994 -858.531006 
110.342003 -147.656006 -858.531006 
111.139999 -146.093994 -856.968994 
109.397003 -149.218994 -856.968994 
110.161003 -147.656006 -856.968994 
108.594002 -150.462006 -856.968994 
108.402000 -150.781006 -856.968994 
108.903000 -150.781006 -858.531006 
108.594002 -150.781006 -857.405029 
107.030998 -153.906006 -857.090027 
107.030998 -153.964005 -856.968994 
105.469002 -157.031006 -858.281982 
105.396004 -157.031006 -858.531006 
104.879997 -158.593994 -858.531006 
104.644997 -158.593994 -856.968994 
104.263000 -160.156006 -858.531006 
104.066002 -161.718994 -856.968994 
103.905998 -161.776001 -858.531006 
102.344002 -164.143005 -858.531006 
102.600998 -163.281006 -858.531006 
102.344002 -164.843994 -857.135010 
99.219002 -167.488998 -858.531006 
101.585999 -166.406006 -856.968994 
100.780998 -166.940994 -858.531006 
98.883003 -167.968994 -858.531006 
99.219002 -167.968994 -857.856018 
85.155998 -61.383999 -866.343994 
86.719002 -60.618999 -864.781006 
84.628998 -61.719002 -864.781006 
-32.528999 -61.719002 -864.781006 
-33.594002 -61.719002 -865.487976 
-34.358002 50.780998 -855.406006 
33.594002 118.450996 -866.343994 
85.792999 52.344002 -855.406006 
83.594002 52.946999 -855.406006 
36.719002 118.727997 -866.343994 
85.155998 52.344002 -855.179016 
83.594002 52.344002 -854.729004 
82.030998 52.344002 -854.669983 
30.469000 116.600998 -867.906006 
78.905998 52.344002 -854.224976 
77.344002 53.905998 -854.252014 
77.721001 52.344002 -853.843994 
75.780998 52.452999 -853.843994 
74.219002 52.344002 -853.888977 
-32.030998 53.183998 -853.843994 
80.469002 53.905998 -855.244019 
24.219000 59.374001 -828.843994 
19.531000 59.814999 -828.843994 
21.094000 59.979000 -828.843994 
30.202000 116.405998 -867.906006 
78.905998 54.514000 -855.406006 
78.905998 53.905998 -855.177979 
78.141998 55.469002 -855.406006 
52.344002 115.969002 -866.343994 
55.469002 115.820999 -867.906006 
55.469002 115.931999 -866.343994 
57.030998 115.875999 -866.343994 
60.155998 114.844002 -866.669983 
17.969000 60.155998 -828.747009 
16.406000 59.764999 -828.843994 
14.844000 60.155998 -828.231018 
42.424999 61.719002 -828.843994 
39.844002 60.319000 -827.281006 
27.344000 60.155998 -827.411011 
24.219000 60.155998 -828.328003 
25.781000 61.502998 -827.281006 
24.219000 61.719002 -827.593018 
22.656000 60.155998 -828.755005 
28.898001 113.280998 -866.343994 
59.694000 114.844002 -867.906006 
61.719002 114.305000 -866.343994 
61.953999 113.280998 -867.906006 
22.792999 61.719002 -827.281006 
21.094000 60.155998 -828.744995 
19.531000 60.155998 -828.664978 
19.531000 61.719002 -827.609985 
17.969000 61.719002 -827.554993 
16.406000 60.155998 -828.447021 
10.156000 112.253998 -867.906006 
14.844000 111.719002 -867.294983 
17.969000 111.719002 -867.273987 
17.969000 112.127998 -867.906006 
21.094000 111.719002 -867.140015 
21.094000 112.264000 -867.906006 
22.656000 111.719002 -866.703003 
22.656000 112.370003 -867.906006 
24.219000 111.981003 -866.343994 
24.219000 112.487000 -867.906006 
25.781000 112.582001 -866.343994 
14.844000 61.719002 -827.408020 
13.281000 60.155998 -828.291016 
11.719000 61.719002 -828.028992 
10.156000 61.719002 -828.520020 
7.031000 111.719002 -866.651001 
6.717000 111.719002 -866.343994 
8.594000 111.681999 -866.343994 
10.156000 111.719002 -867.307007 
8.594000 111.719002 -866.393005 
11.719000 111.561996 -867.906006 
13.281000 111.644997 -867.906006 
13.281000 110.848000 -866.343994 
16.406000 111.719002 -867.151978 
16.406000 110.904999 -866.343994 
19.531000 111.719002 -867.322021 
19.531000 111.087997 -866.343994 
21.094000 111.125000 -866.343994 
23.320000 111.719002 -866.343994 
62.603001 111.719002 -866.343994 
63.444000 110.155998 -867.906006 
63.280998 110.759003 -866.343994 
8.594000 61.719002 -828.341003 
41.592999 63.280998 -827.281006 
42.969002 63.280998 -828.508972 
41.405998 62.985001 -827.281006 
41.405998 61.719002 -828.146973 
24.219000 62.131001 -827.281006 
64.693001 108.594002 -866.343994 
17.969000 62.569000 -827.281006 
64.844002 107.612999 -867.906006 
16.406000 61.719002 -827.693970 
14.778000 63.280998 -827.281006 
13.281000 61.719002 -827.468018 
11.719000 63.280998 -827.796997 
8.594000 63.280998 -828.708984 
66.405998 106.398003 -867.906006 
65.528000 107.030998 -867.906006 
65.803001 107.030998 -866.343994 
109.144997 86.719002 -866.343994 
7.963000 61.719002 -828.843994 
42.969002 64.844002 -827.455994 
105.469002 85.155998 -865.966980 
13.540000 64.844002 -827.281006 
14.844000 63.359001 -827.281006 
13.281000 64.844002 -827.338989 
107.030998 86.719002 -866.085022 
106.741997 85.155998 -866.343994 
107.030998 85.543999 -866.343994 
14.844000 63.280998 -827.293030 
77.191002 100.780998 -867.906006 
77.344002 100.695999 -867.906006 
80.469002 99.750999 -867.906006 
78.905998 99.264000 -866.343994 
79.155998 99.219002 -866.343994 
81.498001 99.219002 -867.906006 
80.469002 99.219002 -866.669983 
83.594002 97.655998 -867.776001 
82.030998 98.061996 -866.343994 
-10.276000 97.655998 -866.343994 
83.594002 97.036003 -866.343994 
82.609001 97.655998 -866.343994 
83.717003 97.655998 -867.906006 
85.155998 96.266998 -866.343994 
-11.719000 95.616997 -867.906006 
-11.368000 96.094002 -867.906006 
86.719002 95.707001 -867.906006 
85.357002 96.094002 -866.343994 
86.719002 94.917999 -866.343994 
86.067001 96.094002 -867.906006 
-11.719000 94.530998 -866.822998 
-12.430000 94.530998 -867.906006 
87.971001 94.530998 -867.906006 
88.280998 93.544998 -866.343994 
88.984001 92.969002 -866.343994 
-14.578000 91.405998 -866.343994 
-14.844000 92.240997 -867.906006 
-13.281000 92.900002 -867.906006 
89.844002 92.969002 -867.377991 
91.405998 92.026001 -867.906006 
102.344002 92.313004 -867.906006 
105.469002 91.405998 -866.456970 
103.905998 92.568001 -867.906006 
105.469002 92.969002 -867.538025 
107.030998 91.405998 -866.549988 
108.594002 91.898003 -867.906006 
-18.466000 89.844002 -867.906006 
-17.969000 90.046997 -867.906006 
-16.330999 89.844002 -866.343994 
-14.844000 91.405998 -866.471985 
-15.996000 91.405998 -867.906006 
90.413002 91.405998 -866.343994 
91.405998 91.405998 -867.034973 
92.499001 91.405998 -867.906006 
91.405998 90.628998 -866.343994 
91.977997 89.844002 -866.343994 
92.969002 90.706001 -867.906006 
97.655998 90.035004 -867.906006 
97.655998 89.844002 -867.606995 
99.219002 90.945000 -867.906006 
99.219002 89.844002 -867.322998 
101.829002 89.844002 -866.343994 
100.780998 89.844002 -866.932007 
100.780998 91.405998 -867.567017 
102.344002 91.405998 -866.919983 
102.344002 90.403000 -866.343994 
103.535004 91.405998 -866.343994 
108.594002 91.405998 -867.219971 
108.594002 89.916000 -866.343994 
110.155998 89.844002 -867.755981 
-19.954000 88.280998 -867.906006 
-19.531000 88.825996 -867.906006 
-19.531000 88.280998 -867.499023 
-17.969000 89.844002 -867.551025 
-16.406000 89.844002 -866.434998 
92.969002 89.844002 -867.476013 
93.544998 89.844002 -867.906006 
94.530998 89.051003 -867.906006 
92.969002 88.542999 -866.343994 
93.617996 88.280998 -866.343994 
94.530998 88.280998 -866.828003 
96.094002 88.280998 -867.331970 
97.655998 88.405998 -866.343994 
99.219002 88.477997 -866.343994 
100.780998 88.498001 -866.343994 
108.303001 88.280998 -866.343994 
108.646004 89.844002 -866.343994 
108.594002 88.280998 -866.432007 
111.719002 88.942001 -867.906006 
110.155998 88.280998 -866.901978 
110.155998 87.344002 -866.343994 
111.719002 86.719002 -867.041992 
111.719002 88.280998 -867.401978 
112.310997 88.280998 -867.906006 
-21.094000 86.719002 -867.931030 
-21.094000 85.155998 -866.426025 
-19.531000 86.719002 -866.776001 
107.954002 86.719002 -866.343994 
108.594002 86.719002 -866.538025 
109.549004 85.155998 -866.343994 
110.806999 86.719002 -866.343994 
111.719002 85.155998 -867.396973 
112.487999 85.155998 -867.906006 
112.740997 86.719002 -867.906006 
-25.438999 83.594002 -867.906006 
-24.219000 84.456001 -867.906006 
-22.656000 85.155998 -867.848022 
-21.094000 85.012001 -866.343994 
107.030998 85.155998 -866.422974 
108.594002 83.594002 -866.971985 
108.594002 85.155998 -866.655029 
110.155998 83.594002 -866.643005 
110.155998 84.428001 -866.343994 
111.719002 83.594002 -867.690979 
-25.781000 82.985001 -867.906006 
-24.219000 83.594002 -867.416016 
-25.781000 82.030998 -867.663025 
-24.219000 82.030998 -866.885010 
-22.656000 83.594002 -867.450012 
-21.799000 83.594002 -866.343994 
105.021004 82.030998 -866.343994 
105.469002 82.792000 -866.343994 
105.469002 82.030998 -866.518982 
107.374001 83.594002 -866.343994 
107.030998 82.682999 -866.343994 
107.030998 82.030998 -866.513000 
111.719002 83.019997 -867.906006 
112.056999 83.594002 -867.906006 
-26.198999 82.030998 -867.906006 
-27.344000 80.731003 -867.906006 
-24.684000 80.469002 -866.343994 
-24.219000 81.078003 -866.343994 
107.030998 80.469002 -867.158020 
108.594002 80.925003 -867.906006 
108.594002 82.030998 -867.380005 
110.155998 82.030998 -867.435974 
-27.344000 78.905998 -867.775024 
-27.344000 80.469002 -867.799011 
-27.569000 78.905998 -867.906006 
-25.781000 80.469002 -867.159973 
105.501999 80.469002 -866.343994 
105.469002 80.311996 -866.343994 
107.030998 78.905998 -867.557983 
-25.781000 78.905998 -866.664978 
-26.423000 77.344002 -866.343994 
-27.344000 77.344002 -867.080994 
105.469002 77.344002 -866.487976 
105.469002 78.905998 -866.528015 
107.030998 77.344002 -867.757996 
13.281000 64.620003 -827.281006 
12.772000 63.280998 -827.281006 
-27.344000 75.780998 -866.763000 
105.469002 76.349998 -866.343994 
105.524002 75.780998 -866.343994 
-27.344000 74.363998 -866.343994 
105.469002 74.219002 -866.768982 
106.681000 74.219002 -867.906006 
106.315002 75.780998 -867.906006 
10.156000 63.280998 -828.317017 
105.469002 71.094002 -867.101013 
105.469002 72.655998 -866.476990 
105.130997 72.655998 -866.343994 
43.224998 66.405998 -827.281006 
91.405998 69.975998 -866.343994 
91.405998 69.530998 -866.577026 
92.969002 70.205002 -866.343994 
104.358002 71.094002 -866.343994 
103.905998 69.530998 -866.872009 
105.469002 70.047997 -867.906006 
11.719000 66.405998 -827.609009 
90.414001 69.530998 -866.343994 
89.844002 67.969002 -866.593018 
92.969002 69.530998 -866.726013 
94.530998 69.041000 -866.343994 
92.969002 67.969002 -867.328979 
94.530998 67.969002 -866.806030 
96.094002 67.969002 -867.192993 
97.655998 68.588997 -866.343994 
104.963997 69.530998 -867.906006 
11.719000 64.844002 -827.640991 
10.156000 64.844002 -828.301025 
10.285000 66.405998 -828.843994 
-27.962999 67.969002 -866.343994 
89.136002 67.969002 -866.343994 
89.844002 66.405998 -867.077026 
91.405998 67.969002 -867.250000 
92.969002 66.625000 -867.906006 
94.530998 66.510002 -867.906006 
97.655998 67.171997 -867.906006 
97.655998 67.969002 -867.013000 
99.219002 67.969002 -867.182983 
100.780998 67.969002 -867.283997 
100.780998 67.342003 -867.906006 
102.344002 67.969002 -867.578003 
102.882004 67.969002 -867.906006 
102.344002 67.671997 -867.906006 
8.594000 65.007004 -828.843994 
8.594000 64.844002 -828.760986 
44.398998 67.969002 -828.843994 
88.566002 66.405998 -866.343994 
91.405998 66.405998 -867.536987 
88.280998 63.280998 -866.476013 
88.063004 64.844002 -866.343994 
89.844002 64.844002 -867.708984 
88.280998 64.844002 -866.510010 
11.719000 67.969002 -827.986023 
12.209000 67.969002 -827.281006 
12.192000 66.405998 -827.281006 
88.098000 63.280998 -866.343994 
88.280998 61.719002 -866.455994 
89.844002 61.719002 -867.695007 
44.175999 69.530998 -828.843994 
43.580002 67.969002 -827.281006 
88.152000 61.719002 -866.343994 
88.280998 61.532001 -866.343994 
89.102997 60.155998 -866.343994 
42.969002 68.939003 -827.281006 
89.844002 59.028000 -866.343994 
89.844002 60.155998 -867.260010 
90.920998 60.155998 -867.906006 
91.405998 58.594002 -867.492981 
91.405998 57.105000 -866.343994 
13.281000 69.530998 -827.804993 
11.719000 68.247002 -828.843994 
92.969002 55.469002 -867.340027 
92.969002 57.063999 -867.906006 
10.803000 67.969002 -828.843994 
42.969002 71.094002 -828.515015 
42.969002 69.530998 -827.719971 
22.862000 71.094002 -827.281006 
22.285000 71.094002 -827.281006 
14.371000 71.094002 -828.843994 
14.215000 69.530998 -827.281006 
13.281000 70.718002 -828.843994 
42.969002 71.462997 -828.843994 
96.094002 52.104000 -867.906006 
95.827003 52.344002 -867.906006 
96.094002 51.323002 -866.343994 
43.222000 71.094002 -828.843994 
22.656000 72.655998 -827.491028 
22.656000 71.094002 -827.383972 
21.000999 72.655998 -827.281006 
19.531000 71.494003 -827.281006 
14.844000 71.806999 -828.843994 
99.219002 48.592999 -866.343994 
98.587997 49.219002 -866.343994 
99.219002 49.219002 -866.994019 
100.422997 49.219002 -867.906006 
100.780998 48.901001 -867.906006 
102.344002 47.655998 -867.353027 
102.344002 48.004002 -867.906006 
100.780998 48.084999 -866.343994 
42.367001 72.655998 -828.843994 
102.344002 46.138000 -866.343994 
101.253998 47.655998 -866.343994 
41.536999 72.655998 -827.281006 
-41.366001 44.530998 -866.343994 
103.459999 44.530998 -866.343994 
-41.405998 44.530998 -866.445007 
103.905998 44.530998 -867.000000 
103.905998 43.056000 -866.343994 
52.344002 -75.780998 -839.333984 
105.346001 41.405998 -867.906006 
105.313004 42.969002 -867.906006 
50.780998 -77.344002 -838.567017 
-10.156000 -76.668999 -839.781006 
-10.156000 -77.344002 -839.429993 
102.344002 40.483002 -866.343994 
102.344002 39.844002 -866.966003 
103.905998 41.338001 -866.343994 
103.944000 41.405998 -866.343994 
50.780998 -75.780998 -838.629028 
52.344002 -74.219002 -839.398010 
49.518002 -75.780998 -838.218994 
99.219002 38.280998 -866.349976 
100.780998 39.361000 -866.343994 
105.108002 39.844002 -867.906006 
103.905998 39.844002 -867.158020 
97.655998 37.433998 -866.343994 
96.212997 36.719002 -866.343994 
97.655998 36.719002 -867.366028 
100.780998 38.280998 -867.335999 
94.530998 35.155998 -866.833984 
94.530998 35.497002 -866.343994 
96.094002 35.602001 -867.906006 
96.094002 36.659000 -866.343994 
94.186996 35.155998 -866.343994 
92.969002 33.655998 -866.343994 
92.969002 33.594002 -866.469971 
92.917000 33.594002 -866.343994 
92.592003 32.030998 -867.906006 
92.969002 32.716000 -867.906006 
92.185997 30.469000 -867.906006 
91.889000 32.030998 -866.343994 
-8.594000 -75.780998 -839.289001 
91.405998 28.906000 -867.812012 
91.405998 30.469000 -866.398010 
90.889999 27.344000 -867.906006 
89.844002 25.781000 -866.557983 
89.740997 25.781000 -866.343994 
89.502998 24.219000 -867.906006 
88.963997 22.656000 -866.343994 
89.360001 22.656000 -867.906006 
89.844002 19.531000 -867.198975 
89.844002 18.864000 -866.343994 
91.405998 18.504999 -867.906006 
91.052002 16.406000 -866.343994 
90.629997 17.969000 -866.343994 
92.969002 16.580999 -867.906006 
91.405998 17.969000 -867.119995 
91.405998 15.834000 -866.343994 
91.405998 16.406000 -866.822021 
92.500000 14.844000 -866.343994 
93.088997 16.406000 -867.906006 
94.530998 15.796000 -867.906006 
92.969002 16.406000 -867.857971 
96.094002 15.510000 -867.906006 
97.655998 14.918000 -867.906006 
92.969002 14.844000 -866.744019 
94.530998 13.425000 -866.343994 
92.969002 14.542000 -866.343994 
96.094002 13.281000 -866.909973 
94.530998 14.844000 -867.166992 
97.655998 14.844000 -867.872009 
96.094002 14.844000 -867.669006 
100.780998 13.281000 -867.203003 
102.344002 13.778000 -867.906006 
94.732002 13.281000 -866.343994 
96.742996 11.719000 -866.343994 
97.655998 13.281000 -867.166016 
99.219002 11.719000 -867.229980 
97.655998 11.719000 -866.900024 
102.344002 11.719000 -866.781982 
102.344002 13.281000 -867.557983 
103.905998 11.719000 -867.356018 
105.102997 11.719000 -867.906006 
99.219002 10.437000 -866.343994 
102.344002 10.156000 -866.554993 
100.780998 11.719000 -866.346985 
103.905998 10.156000 -866.851990 
105.469002 11.408000 -867.906006 
102.344002 9.852000 -866.343994 
107.030998 10.156000 -867.504028 
108.362000 10.156000 -867.906006 
110.155998 8.594000 -867.487976 
108.594002 8.594000 -866.692993 
111.719002 7.031000 -866.458008 
111.719002 6.882000 -866.343994 
113.280998 5.469000 -866.797974 
113.280998 6.351000 -867.906006 
113.961998 5.469000 -867.906006 
114.011002 3.906000 -866.343994 
114.844002 3.511000 -867.906006 
114.688004 2.344000 -866.343994 
114.844002 2.344000 -866.565002 
115.459999 2.344000 -867.906006 
114.844002 2.099000 -866.343994 
115.584999 0.781000 -866.343994 
116.405998 -0.963000 -866.343994 
116.405998 -0.781000 -866.661011 
116.710999 -0.781000 -867.906006 
118.250000 -3.906000 -867.906006 
118.067001 -7.031000 -867.906006 
118.186996 -5.469000 -867.906006 
118.045998 -5.469000 -866.343994 
117.969002 -7.031000 -867.416016 
117.529999 -7.031000 -866.343994 
116.405998 -9.335000 -867.906006 
116.964996 -8.594000 -866.343994 
116.405998 -9.035000 -866.343994 
113.280998 -11.206000 -867.906006 
112.200996 -11.719000 -866.343994 
114.844002 -10.332000 -867.906006 
110.155998 -12.730000 -867.906006 
111.719002 -12.264000 -867.906006 
109.249001 -13.281000 -867.906006 
108.594002 -13.726000 -867.906006 
107.030998 -14.844000 -867.232971 
107.030998 -15.286000 -867.906006 
106.543999 -14.844000 -866.343994 
107.289001 -14.844000 -867.906006 
105.662003 -17.969000 -867.906006 
105.970001 -16.406000 -866.343994 
105.550003 -19.531000 -867.906006 
106.211998 -19.531000 -866.343994 
105.408997 -21.094000 -867.906006 
105.469002 -21.094000 -867.773010 
106.018997 -21.094000 -866.343994 
105.469002 -23.839001 -867.906006 
-9.245000 -75.780998 -839.781006 
105.469002 -24.219000 -867.392029 
105.469002 -24.969999 -866.343994 
105.253998 -25.781000 -866.343994 
104.655998 -27.344000 -866.343994 
49.417000 -72.655998 -838.218994 
103.905998 -28.906000 -867.619995 
104.468002 -28.906000 -866.343994 
50.780998 -74.219002 -838.604004 
-7.031000 -72.655998 -838.833984 
-42.969002 -30.320000 -866.343994 
-7.031000 -74.219002 -838.541992 
103.304001 -30.469000 -866.343994 
-42.969002 -30.469000 -866.614990 
-8.594000 -74.219002 -839.664001 
-42.792000 -30.469000 -866.343994 
102.344002 -31.471001 -867.906006 
102.344002 -31.613001 -866.343994 
52.344002 -71.094002 -839.338989 
52.344002 -72.655998 -839.348999 
-42.969002 -32.030998 -866.958008 
100.780998 -33.386002 -867.906006 
100.780998 -33.508999 -866.343994 
101.905998 -32.030998 -866.343994 
-42.969002 -33.594002 -867.518005 
-41.405998 -34.158001 -866.343994 
-41.743000 -33.594002 -866.343994 
-41.405998 -35.155998 -866.843994 
50.780998 -72.655998 -838.591980 
100.727997 -33.594002 -866.343994 
-41.405998 -36.380001 -866.343994 
